ply
format ascii 1.0
element vertex 1241
property float x
property float y
property float z
property uchar red
property uchar green
property uchar blue
end_header
-0.484630 -0.233577 -0.314704 127 127 0
0.324174 0.499615 -0.260432 127 127 0
-0.384132 0.810987 -0.190701 0 127 127
-0.466106 -0.846602 0.077855 127 0 127
-0.155893 -0.197253 0.559243 127 127 0
0.317292 0.653637 0.474358 127 127 0
-0.180795 -0.781496 -0.540050 127 127 0
-0.081022 0.785452 -0.453687 127 127 0
-0.178832 0.703778 -0.065282 0 127 127
-0.316672 -0.043686 0.306344 127 127 0
-0.162469 0.585651 0.379828 0 127 127
-0.232452 -0.143978 -0.360961 127 127 0
-0.582161 0.173467 0.036705 127 127 0
-0.209852 -0.082957 0.385748 127 127 0
0.169912 0.785711 0.498072 127 127 0
0.035179 0.686757 0.575982 127 127 0
0.360983 0.330436 -0.428501 127 127 0
-0.150966 0.579153 -0.550550 127 127 0
-0.300501 -0.650192 0.321878 127 127 0
-0.113062 0.756123 -0.140317 0 127 127
-0.039381 0.700460 0.577208 127 127 0
-0.564591 -0.165278 0.149894 127 127 0
0.323025 -0.330082 0.273937 127 127 0
-0.267195 -0.045287 -0.337595 127 127 0
-0.433201 -0.461154 0.082999 127 127 0
0.083451 -0.846602 0.121071 127 0 127
-0.512442 0.302980 -0.269511 127 127 0
0.553918 0.140082 0.093621 127 127 0
-0.439591 -0.591649 -0.007840 127 127 0
-0.137537 0.739196 -0.091137 0 127 127
0.139663 -0.838554 0.305343 127 127 0
0.407894 0.778120 0.162023 127 127 0
0.200190 0.524290 -0.366658 127 127 0
0.013179 0.023475 -0.422293 127 127 0
-0.207432 -0.575671 -0.374982 127 127 0
0.143014 -0.729246 0.405585 127 127 0
-0.218620 0.128590 0.380848 127 127 0
-0.573938 -0.047397 -0.095371 127 127 0
-0.128635 -0.203958 -0.553507 127 127 0
-0.262737 0.619501 0.333002 0 127 127
0.272916 -0.483055 -0.314808 127 127 0
0.525443 -0.384285 -0.191606 127 127 0
-0.501672 -0.807611 -0.284436 127 127 0
0.210155 -0.846602 0.345378 127 0 127
-0.284318 -0.838465 0.138058 127 127 0
0.093418 0.286415 -0.408957 127 127 0
0.239920 -0.665748 -0.507879 127 127 0
-0.400186 0.322692 0.425570 127 127 0
0.520903 0.684221 0.216080 127 127 0
0.358021 -0.587282 0.223639 127 127 0
-0.439616 -0.258242 -0.004528 127 127 0
0.219022 -0.505098 0.529544 127 127 0
-0.458926 -0.678617 0.362190 127 127 0
-0.016471 0.786164 -0.478223 127 127 0
-0.411392 -0.804774 0.074357 127 127 0
0.184237 0.855264 -0.355968 0 127 127
-0.583026 0.400064 0.003179 127 127 0
-0.269931 0.315102 -0.335164 127 127 0
-0.439534 -0.656953 0.026343 127 127 0
0.279646 0.612247 -0.308485 127 127 0
0.339598 -0.526470 -0.446135 127 127 0
0.499797 0.355340 0.263339 127 127 0
-0.572572 -0.372977 0.114780 127 127 0
-0.245740 -0.846602 0.408530 127 0 127
-0.509682 -0.048027 0.286654 127 127 0
0.350668 0.639918 0.216726 0 127 127
-0.574481 -0.119820 -0.091893 127 127 0
0.239567 0.719779 -0.341222 127 127 0
-0.579845 -0.736738 -0.052641 127 127 0
-0.573550 -0.079870 -0.097855 127 127 0
0.540038 0.759878 -0.135002 127 127 0
-0.402400 0.103063 -0.168733 127 127 0
0.282226 0.654919 0.117062 0 127 127
0.099609 -0.231227 -0.407379 127 127 0
-0.370761 0.008308 -0.226948 127 127 0
-0.097823 0.078521 -0.559080 127 127 0
-0.282801 0.529882 0.511132 127 127 0
-0.310329 -0.007307 -0.481444 127 127 0
-0.522087 -0.314662 0.263116 127 127 0
0.297099 -0.846602 0.032990 127 0 127
0.342710 -0.755492 -0.443662 127 127 0
-0.323161 0.838171 -0.269714 0 127 127
-0.241360 0.745063 -0.219358 0 127 127
-0.287879 -0.418607 -0.494608 127 127 0
-0.373590 -0.159709 0.234229 127 127 0
-0.384638 -0.150078 0.439076 127 127 0
-0.217302 0.828660 -0.357347 0 127 127
-0.399887 0.460565 -0.413735 127 127 0
0.487887 -0.443014 -0.273481 127 127 0
0.421433 0.194616 -0.368321 127 127 0
-0.250690 0.615676 0.263521 0 127 127
0.559825 0.053613 -0.029588 127 127 0
-0.140194 -0.407556 0.413917 127 127 0
0.223644 0.745244 -0.047427 0 127 127
-0.234437 0.710069 -0.088759 0 127 127
-0.093293 -0.833416 -0.545015 127 127 0
-0.095222 -0.549658 0.425993 127 127 0
0.056160 -0.838465 0.067455 127 127 0
0.517467 -0.695724 -0.212269 127 127 0
0.213125 0.620635 0.245012 0 127 127
0.412469 -0.667046 -0.378398 127 127 0
-0.030766 0.782123 -0.357667 0 127 127
0.278750 -0.648367 -0.487275 127 127 0
-0.321270 -0.743043 0.301469 127 127 0
0.524824 -0.316562 -0.193174 127 127 0
-0.139266 0.767123 0.417481 127 127 0
-0.303994 0.361387 0.497313 127 127 0
-0.092007 0.125054 0.572117 127 127 0
-0.466777 0.298233 0.352048 127 127 0
0.417196 0.528861 -0.009620 127 127 0
0.257397 -0.629227 0.339675 127 127 0
-0.224361 -0.572741 0.536937 127 127 0
0.351290 0.786023 0.319580 127 127 0
-0.273839 -0.618647 -0.502161 127 127 0
-0.437965 0.638095 0.049879 127 127 0
0.164238 -0.348490 -0.538345 127 127 0
0.084607 -0.521199 -0.411284 127 127 0
0.208315 -0.838465 -0.212255 127 127 0
0.225422 -0.838530 0.231047 127 127 0
-0.510540 -0.094398 -0.272957 127 127 0
0.423539 -0.140174 0.377718 127 127 0
-0.582384 0.340986 -0.017387 127 127 0
-0.313845 -0.846422 -0.366388 127 0 127
-0.310587 -0.093864 0.312380 127 127 0
-0.321138 -0.785137 -0.474369 127 127 0
-0.061433 0.037033 0.575408 127 127 0
-0.392399 0.786125 -0.305762 127 127 0
-0.414922 0.543021 -0.401958 127 127 0
0.351382 0.661671 -0.010170 76 153 0
-0.410171 0.456783 0.161304 127 127 0
-0.474317 0.056995 -0.329719 127 127 0
0.346423 0.133558 -0.440641 127 127 0
-0.108750 -0.109652 0.422688 127 127 0
-0.552286 -0.011319 -0.179162 127 127 0
0.405254 0.066463 -0.092746 127 127 0
0.203288 -0.710245 0.536176 127 127 0
0.137465 -0.842532 -0.514965 127 0 127
-0.397348 -0.830687 -0.401227 127 127 0
-0.209869 0.248434 0.542541 127 127 0
0.278994 -0.838465 -0.095872 127 127 0
0.328458 0.080373 0.466036 127 127 0
0.555266 0.315066 -0.072921 127 127 0
-0.566714 -0.197624 -0.129512 127 127 0
-0.582160 -0.753866 -0.024531 127 127 0
0.181499 -0.578863 0.388948 127 127 0
-0.247518 0.025772 -0.514712 127 127 0
0.066144 0.329468 -0.415649 127 127 0
-0.354407 -0.350182 -0.451610 127 127 0
0.341205 -0.238414 -0.444948 127 127 0
0.526943 0.271323 -0.188342 127 127 0
-0.370930 0.685842 0.238364 127 127 0
0.560561 -0.024817 -0.006014 127 127 0
-0.304000 0.068439 0.497307 127 127 0
0.079245 0.182799 -0.558509 127 127 0
-0.360778 0.633371 -0.241269 127 127 0
0.091409 0.177824 0.421494 127 127 0
0.177024 0.813213 -0.224229 0 127 127
0.274481 -0.251306 -0.313338 127 127 0
-0.420663 0.630130 -0.394451 127 127 0
0.084710 -0.209893 0.569785 127 127 0
0.301188 -0.769101 0.485309 127 127 0
-0.513595 -0.811775 0.274982 127 127 0
-0.289354 -0.366874 0.505517 127 127 0
-0.540861 0.090143 -0.210027 127 127 0
0.113956 -0.068337 -0.403039 127 127 0
-0.112602 -0.838465 -0.038043 127 127 0
-0.410945 0.369276 0.415245 127 127 0
0.108314 0.411014 0.416911 127 127 0
0.375182 0.191581 -0.415885 127 127 0
0.390540 0.623064 -0.142462 127 127 0
-0.322582 -0.710964 -0.287935 127 127 0
0.203546 -0.341326 0.376900 127 127 0
0.551378 -0.457835 -0.097821 127 127 0
0.109815 -0.643874 -0.552754 127 127 0
-0.359408 -0.394344 -0.447924 127 127 0
-0.581572 0.686718 -0.034192 127 127 0
-0.581183 -0.648008 -0.038344 127 127 0
0.327382 -0.372057 -0.455096 127 127 0
0.414904 0.594953 -0.379003 127 127 0
-0.283283 0.644989 0.154122 0 127 127
0.146732 0.002968 -0.543471 127 127 0
-0.168145 0.241668 -0.543710 127 127 0
-0.059349 0.792377 -0.395936 0 127 127
-0.057639 0.786384 0.497659 127 127 0
0.071449 -0.611624 -0.414651 127 127 0
-0.209146 -0.217671 0.542421 127 127 0
0.252315 0.787102 -0.133247 0 127 127
0.373295 -0.846602 -0.104383 127 0 127
0.479912 -0.467306 0.299674 127 127 0
0.063383 -0.438504 -0.560983 127 127 0
-0.092841 0.786391 0.490439 127 127 0
-0.015287 -0.019397 -0.565831 127 127 0
0.192216 -0.324184 0.540436 127 127 0
0.193895 -0.230947 0.539770 127 127 0
-0.519675 -0.845863 0.079567 127 0 127
-0.393454 -0.767035 -0.419524 127 127 0
0.303014 0.498465 0.297272 127 127 0
0.540431 0.237056 -0.144780 127 127 0
0.114141 0.093085 -0.402983 127 127 0
0.054609 0.722197 -0.417847 127 127 0
0.348137 0.729151 -0.438959 127 127 0
-0.331686 0.264648 -0.278267 127 127 0
-0.282684 0.161113 0.509609 127 127 0
0.557404 -0.465696 0.067577 127 127 0
0.104652 -0.254700 0.418026 127 127 0
-0.188260 0.234319 -0.384379 127 127 0
0.065849 -0.846602 -0.117413 127 0 127
0.444063 -0.189173 0.352655 127 127 0
-0.308364 -0.444670 0.494494 127 127 0
0.332869 0.731103 -0.167259 0 127 127
0.271603 -0.173402 0.503496 127 127 0
-0.086106 -0.846602 0.438439 127 0 127
-0.329668 -0.397194 0.292523 127 127 0
-0.209121 -0.452436 -0.530709 127 127 0
0.095143 0.465474 0.567724 127 127 0
0.089130 0.731625 -0.079134 0 127 127
-0.436344 0.582971 -0.052113 127 127 0
-0.240619 -0.846602 0.316341 127 0 127
-0.114985 0.812164 -0.403274 0 127 127
-0.346668 -0.703128 -0.457313 127 127 0
-0.582081 0.133206 -0.027086 127 127 0
-0.014333 0.140441 -0.565861 127 127 0
-0.311648 -0.114737 0.492679 127 127 0
0.011851 -0.032248 0.577044 127 127 0
-0.011769 0.696612 -0.038539 0 127 127
0.295309 0.314025 -0.293344 127 127 0
-0.236484 -0.603251 -0.358512 127 127 0
-0.203878 0.469003 -0.532583 127 127 0
0.414809 -0.101538 -0.375802 127 127 0
-0.008224 0.888798 -0.379581 0 127 127
0.559005 -0.443444 -0.038360 127 127 0
0.090302 -0.711433 0.568913 127 127 0
-0.009424 0.732091 -0.565121 127 127 0
-0.439685 0.178194 0.014525 127 127 0
-0.407377 -0.090038 -0.156463 127 127 0
0.232414 0.579788 0.525741 127 127 0
-0.396227 -0.684776 0.429210 127 127 0
0.004015 0.432949 -0.565491 127 127 0
-0.177767 -0.753425 0.399297 127 127 0
0.380780 -0.035959 -0.410759 127 127 0
0.369826 0.398827 0.432925 127 127 0
-0.050796 0.617871 0.255331 0 127 127
0.334605 -0.846602 -0.019539 127 0 127
-0.205940 -0.078670 -0.375798 127 127 0
-0.467406 -0.768772 -0.339096 127 127 0
-0.052746 0.849200 -0.313175 0 127 127
-0.356120 -0.638681 -0.450334 127 127 0
-0.198030 0.823914 -0.242959 0 127 127
-0.399747 -0.315338 -0.174516 127 127 0
0.018919 -0.085347 -0.565027 127 127 0
0.560752 0.109007 0.011986 127 127 0
-0.160786 0.134795 0.557909 127 127 0
0.042782 -0.846603 -0.488309 127 0 127
-0.549212 -0.294670 0.200536 127 127 0
0.546002 0.172930 0.134874 127 127 0
0.086128 0.020470 -0.410817 127 127 0
-0.182780 0.480664 0.551661 127 127 0
-0.413806 -0.846602 -0.043999 127 0 127
-0.435242 0.149814 0.068370 127 127 0
-0.439603 -0.751544 0.023111 127 127 0
-0.583981 0.576475 -0.055699 127 127 0
-0.066965 -0.801223 -0.560818 127 127 0
0.416897 -0.068689 0.385216 127 127 0
0.095521 -0.092765 0.567439 127 127 0
0.560800 -0.470352 0.010436 127 127 0
-0.067357 -0.755299 0.574909 127 127 0
0.212062 0.638675 -0.521341 127 127 0
-0.117973 0.407845 -0.555841 127 127 0
-0.508172 0.320978 0.289391 127 127 0
-0.243885 0.667011 0.071935 0 127 127
0.095956 -0.755862 -0.405313 127 127 0
0.100488 -0.846602 -0.045415 127 0 127
0.030736 -0.783627 0.422423 127 127 0
0.246748 -0.287653 0.348026 127 127 0
-0.126159 0.741244 0.565188 127 127 0
0.036237 0.624454 0.577295 127 127 0
0.394481 -0.430023 -0.130422 127 127 0
-0.249124 0.530760 -0.515332 127 127 0
-0.409633 -0.386913 0.162705 127 127 0
0.056980 0.790679 -0.217709 0 127 127
0.349731 -0.805991 -0.191119 127 127 0
-0.020084 -0.843966 0.538997 127 0 127
-0.207782 0.580626 -0.533589 127 127 0
0.071871 -0.473698 -0.559659 127 127 0
-0.363879 0.581212 0.459239 127 127 0
-0.209297 -0.358463 0.386067 127 127 0
0.243037 -0.844634 -0.463103 127 0 127
0.229917 -0.198801 -0.348276 127 127 0
0.017263 0.027198 0.433987 127 127 0
0.412594 -0.357673 0.390637 127 127 0
-0.382441 0.762252 0.062437 0 127 127
0.349936 0.091895 -0.224295 127 127 0
-0.347365 0.818841 -0.146273 0 127 127
-0.022013 0.175353 -0.565621 127 127 0
-0.177916 0.169759 -0.388901 127 127 0
0.389048 0.401118 -0.402411 127 127 0
0.030623 -0.846602 -0.411478 127 0 127
0.290697 -0.304940 0.492000 127 127 0
0.252489 -0.590809 -0.501763 127 127 0
-0.289522 0.677584 0.032476 0 127 127
-0.184493 0.034288 0.398013 127 127 0
0.018875 -0.169861 0.576825 127 127 0
-0.425396 0.390565 -0.101301 127 127 0
-0.087499 0.477873 0.427632 127 127 0
0.520167 -0.526885 0.218416 127 127 0
0.395432 0.767223 0.073454 0 127 127
-0.159419 0.203487 0.558294 127 127 0
-0.091944 0.692080 0.054625 0 127 127
0.059612 0.643666 0.159059 0 127 127
0.095080 -0.462653 0.420598 127 127 0
-0.339072 -0.135370 -0.462686 127 127 0
0.160769 0.812606 -0.378956 0 127 127
-0.212598 0.466755 0.384219 127 127 0
0.529795 -0.839635 -0.059278 127 0 127
-0.532224 0.705044 -0.229618 127 127 0
0.203828 0.339701 -0.364619 127 127 0
0.548371 -0.788479 -0.109281 127 127 0
0.136652 -0.683451 -0.395892 127 127 0
-0.078171 -0.577056 -0.561907 127 127 0
-0.007871 0.858515 -0.327109 0 127 127
0.362419 -0.578154 0.439429 127 127 0
-0.486995 -0.105980 0.323323 127 127 0
0.550284 0.768198 0.003298 127 127 0
-0.314997 -0.846602 0.123128 127 0 127
0.297994 -0.649528 0.487449 127 127 0
-0.564973 -0.509409 0.148421 127 127 0
0.037058 0.674550 0.158453 0 127 127
-0.278164 -0.184116 0.511708 127 127 0
-0.268764 0.776465 -0.336552 0 127 127
0.252759 0.786402 -0.418868 127 127 0
0.099788 0.171124 0.566333 127 127 0
-0.210714 -0.846602 -0.024179 127 0 127
0.347951 0.784290 0.400527 127 127 0
0.331293 0.667885 0.068675 0 127 127
0.281739 0.786352 -0.368879 127 127 0
0.544108 0.483498 0.143535 127 127 0
-0.340780 -0.348457 0.279336 127 127 0
-0.259494 -0.503390 -0.343243 127 127 0
-0.239480 -0.835674 0.514167 127 127 0
-0.177600 0.510984 -0.541351 127 127 0
-0.015866 -0.770581 -0.422372 127 127 0
0.189617 -0.101068 0.384692 127 127 0
0.279477 0.393259 -0.486823 127 127 0
0.066087 -0.595657 0.572688 127 127 0
-0.045841 0.465615 -0.564877 127 127 0
-0.221318 -0.838478 0.270734 127 127 0
0.185366 0.642476 -0.374972 127 127 0
0.165105 -0.846602 -0.029964 127 0 127
0.141337 -0.838465 0.195626 127 127 0
-0.369890 -0.822193 -0.156303 127 127 0
0.228501 0.187219 0.525084 127 127 0
-0.023551 0.543053 -0.565908 127 127 0
0.287255 -0.846602 0.340379 127 0 127
0.366663 -0.654270 -0.196148 127 127 0
0.319613 -0.790147 0.255505 127 127 0
0.545783 -0.118924 -0.123815 127 127 0
-0.526146 -0.203621 -0.242591 127 127 0
-0.126597 0.247300 0.418144 127 127 0
0.292569 -0.212889 -0.478695 127 127 0
-0.452824 0.591801 0.373011 127 127 0
-0.262497 0.504948 -0.340624 127 127 0
0.226774 -0.149873 -0.514082 127 127 0
-0.468072 0.630479 0.352321 127 127 0
0.183245 -0.840253 -0.507511 127 127 0
0.321550 -0.846602 0.307874 127 0 127
-0.419458 0.668816 0.406715 127 127 0
0.411828 0.021939 -0.379249 127 127 0
0.426477 0.734525 -0.362086 127 127 0
-0.176073 0.791806 -0.387609 0 127 127
0.078372 0.232104 0.570252 127 127 0
-0.428122 -0.315954 0.104060 127 127 0
-0.079353 -0.837811 0.550531 127 0 127
-0.326257 0.466561 0.483201 127 127 0
0.419955 -0.437985 -0.370267 127 127 0
-0.579881 -0.804437 0.003252 127 127 0
-0.102683 0.846075 -0.302701 0 127 127
-0.579797 0.663728 0.063253 127 127 0
0.484299 0.066635 -0.279749 127 127 0
-0.273220 0.708388 0.344904 127 127 0
0.423937 -0.486627 0.377923 127 127 0
0.402955 0.723770 -0.388411 127 127 0
0.225048 -0.452876 0.526916 127 127 0
0.273696 0.373620 0.502291 127 127 0
-0.466105 0.778646 -0.316194 127 127 0
-0.338197 0.761701 -0.272548 0 127 127
0.407807 -0.552572 0.094364 127 127 0
-0.413221 -0.458151 0.412996 127 127 0
-0.176224 -0.846602 0.319474 127 0 127
-0.395414 -0.790693 0.181162 127 127 0
-0.000789 0.201827 0.577437 127 127 0
0.036872 -0.761304 0.575794 127 127 0
-0.354755 0.677735 -0.013679 76 153 0
0.195911 0.657616 0.372609 0 127 127
0.269069 0.307095 0.504763 127 127 0
-0.384336 -0.774954 0.206475 127 127 0
0.133229 0.052595 -0.397118 127 127 0
-0.555806 -0.489481 0.180383 127 127 0
0.496112 0.126429 0.270839 127 127 0
0.540259 -0.044909 -0.145290 127 127 0
-0.291125 -0.529352 0.504638 127 127 0
-0.344282 0.650765 0.132569 0 127 127
-0.411175 0.203255 -0.146573 127 127 0
0.241238 0.162665 0.351964 127 127 0
-0.438038 -0.514395 0.051948 127 127 0
0.359313 -0.291179 -0.209297 127 127 0
-0.298433 0.633962 -0.311696 127 127 0
-0.429087 -0.598792 -0.087156 127 127 0
0.495632 0.685229 -0.259753 127 127 0
-0.083765 -0.266403 0.428278 127 127 0
-0.153600 0.683915 0.158044 0 127 127
-0.341925 0.786183 0.326949 127 127 0
-0.516300 -0.378797 0.274617 127 127 0
-0.575932 0.663356 0.093504 127 127 0
0.364686 -0.359321 0.437428 127 127 0
0.147554 0.357780 0.403833 127 127 0
-0.435893 -0.505692 -0.054833 127 127 0
0.031059 -0.656045 0.432775 127 127 0
-0.260526 -0.793569 0.338658 127 127 0
0.382716 -0.696181 -0.162829 127 127 0
-0.124412 -0.185835 0.566560 127 127 0
-0.299601 0.759316 -0.041302 0 127 127
0.289413 -0.050168 -0.299310 127 127 0
0.557284 -0.324236 -0.056742 127 127 0
0.471305 0.595559 -0.304845 127 127 0
0.237215 -0.412365 0.521291 127 127 0
0.223648 -0.155646 0.527419 127 127 0
-0.358720 0.749516 -0.235979 0 127 127
0.531887 -0.812355 -0.166725 127 127 0
-0.238261 0.741707 -0.041992 0 127 127
0.166018 0.725929 -0.026948 0 127 127
-0.195107 -0.715711 0.547595 127 127 0
-0.560058 -0.343702 0.165902 127 127 0
-0.502294 0.767663 -0.270155 127 127 0
-0.212144 -0.735957 -0.372437 127 127 0
0.411826 0.352106 0.075313 127 127 0
-0.219243 -0.846602 0.347519 127 0 127
0.400279 0.766364 -0.121326 127 127 0
-0.082024 0.346173 0.573676 127 127 0
-0.228836 0.583584 0.537506 127 127 0
0.321716 -0.012644 0.471017 127 127 0
-0.412585 -0.046322 -0.142902 127 127 0
-0.343840 -0.357099 0.470639 127 127 0
0.126524 -0.822830 0.553832 127 127 0
-0.088244 0.716717 -0.560575 127 127 0
-0.432888 0.058905 0.392748 127 127 0
-0.346028 0.776764 0.459567 127 127 0
0.119375 -0.846602 0.389763 127 0 127
-0.407497 0.551742 -0.156149 127 127 0
-0.276899 -0.846602 -0.147203 127 0 127
0.319799 0.171889 -0.460751 127 127 0
0.390946 0.144973 0.153550 127 127 0
0.410084 0.021779 -0.072245 127 127 0
-0.303457 -0.843968 -0.427675 127 0 127
-0.427403 -0.630715 -0.386365 127 127 0
0.474009 0.771901 -0.283993 127 127 0
-0.324958 0.677940 -0.285413 127 127 0
0.488157 0.786402 -0.106928 127 127 0
-0.001285 0.659298 0.100720 0 127 127
-0.388952 0.714221 0.207621 0 127 127
-0.057698 0.673999 0.422685 0 127 127
-0.433517 -0.450909 -0.067681 127 127 0
-0.175576 0.684816 0.380559 0 127 127
0.449400 -0.316001 0.345463 127 127 0
-0.352659 0.733332 -0.175577 0 127 127
-0.162222 0.785281 0.520741 127 127 0
-0.390502 0.673185 0.048893 0 127 127
0.277500 0.031901 -0.310507 127 127 0
-0.240474 -0.588068 0.367735 127 127 0
0.506467 -0.636856 -0.237409 127 127 0
0.441695 0.657870 0.356052 127 127 0
-0.571849 -0.338789 -0.106048 127 127 0
0.484132 0.786375 -0.001933 127 127 0
-0.211052 -0.450083 0.541903 127 127 0
-0.151381 0.401607 0.560558 127 127 0
-0.181596 -0.562310 -0.539921 127 127 0
-0.358539 0.388391 -0.244315 127 127 0
-0.363775 0.761315 0.035406 0 127 127
-0.500423 0.188784 -0.290250 127 127 0
-0.244638 0.786170 0.406083 127 127 0
-0.139081 0.591575 0.353468 0 127 127
0.162066 -0.128454 0.398140 127 127 0
0.317039 0.105044 -0.269119 127 127 0
0.165867 0.773762 0.540868 127 127 0
-0.580103 -0.792815 0.044074 127 127 0
0.396801 -0.594851 -0.122926 127 127 0
-0.179189 0.685594 0.301981 0 127 127
0.475203 0.749261 0.305656 127 127 0
0.260749 0.420366 -0.497344 127 127 0
-0.420269 0.591760 0.130889 127 127 0
0.402963 -0.767677 -0.085574 127 127 0
-0.437190 -0.387032 0.061557 127 127 0
0.079951 -0.657694 0.424291 127 127 0
0.393925 0.288348 -0.397916 127 127 0
-0.444528 -0.301991 -0.367531 127 127 0
-0.246543 -0.838532 0.179114 127 127 0
-0.414043 -0.625523 0.412271 127 127 0
-0.426014 0.634225 0.111064 127 127 0
-0.158348 0.364964 0.558596 127 127 0
0.367148 0.014448 0.207414 127 127 0
-0.060278 0.740789 -0.114151 0 127 127
0.295208 -0.207836 -0.293451 127 127 0
0.264324 0.731454 0.045120 0 127 127
-0.122391 -0.132997 0.567003 127 127 0
-0.287874 -0.407856 0.332881 127 127 0
-0.467676 0.782557 0.009998 127 127 0
0.539636 -0.113276 0.159332 127 127 0
-0.108509 0.684990 0.004837 0 127 127
-0.342267 -0.041419 -0.460492 127 127 0
-0.133534 0.786402 0.472944 127 127 0
-0.551108 -0.343846 0.194743 127 127 0
0.362886 -0.478341 -0.202900 127 127 0
-0.343677 -0.031754 -0.264165 127 127 0
0.395551 -0.662078 -0.126956 127 127 0
-0.151042 -0.054292 -0.548531 127 127 0
-0.038071 -0.114906 0.576916 127 127 0
0.227856 0.639881 0.361716 127 127 0
0.119240 0.344139 0.413548 127 127 0
-0.421094 0.785840 0.353000 127 127 0
0.180309 -0.846602 -0.194132 127 0 127
0.229447 0.289862 0.524657 127 127 0
0.556436 -0.342202 0.077481 127 127 0
0.106174 0.702741 -0.405448 127 127 0
0.051559 0.242148 -0.418363 127 127 0
0.535579 0.771533 0.149775 127 127 0
-0.492856 0.559848 -0.305982 127 127 0
-0.468470 -0.180244 0.349777 127 127 0
-0.350361 0.204792 -0.454506 127 127 0
0.349357 0.377828 0.237359 127 127 0
-0.550519 -0.677649 0.196541 127 127 0
0.360878 0.433488 -0.206490 127 127 0
0.022530 0.698567 -0.045832 0 127 127
-0.530588 -0.149988 -0.233224 127 127 0
0.414302 0.360412 -0.049318 127 127 0
-0.031901 0.255682 0.577109 127 127 0
0.431724 0.294220 0.368364 127 127 0
-0.380783 0.220475 -0.430843 127 127 0
0.122601 0.604683 0.391521 0 127 127
0.076964 0.661525 -0.010058 76 153 0
0.230093 0.709899 -0.088123 0 127 127
0.477937 0.693373 0.002389 76 153 0
-0.313106 -0.846602 -0.243875 127 0 127
0.344684 -0.310901 -0.232505 127 127 0
-0.559612 -0.124126 -0.155747 127 127 0
0.344334 -0.555963 -0.442321 127 127 0
-0.277303 -0.846602 -0.314177 127 0 127
0.366727 -0.846602 -0.223499 127 0 127
0.108014 -0.845515 -0.501359 127 0 127
-0.334280 -0.225651 0.287257 127 127 0
-0.160298 0.640969 0.169126 0 127 127
-0.295127 0.600797 -0.314795 127 127 0
-0.160878 0.010715 0.557884 127 127 0
0.517067 -0.694145 0.226229 127 127 0
-0.193614 -0.411581 0.393679 127 127 0
0.497761 0.185632 0.267491 127 127 0
-0.047006 0.398187 0.433169 127 127 0
0.305108 0.219461 -0.282939 127 127 0
0.337165 -0.773987 0.459980 127 127 0
0.553092 -0.047619 -0.086846 127 127 0
0.415327 -0.376962 0.051427 127 127 0
0.158105 -0.798657 -0.538998 127 127 0
-0.385963 0.799203 -0.064013 0 127 127
0.406588 -0.296922 -0.384901 127 127 0
-0.581420 -0.546625 -0.035811 127 127 0
-0.308794 0.591194 0.496694 127 127 0
0.405279 -0.137916 0.104717 127 127 0
-0.418070 0.722284 0.139026 0 127 127
-0.337205 0.778174 -0.057360 0 127 127
-0.294343 0.739954 -0.200292 0 127 127
0.019140 0.669904 0.269379 0 127 127
-0.110754 0.681175 0.363698 0 127 127
-0.136441 0.757482 -0.265709 0 127 127
0.507466 0.230792 -0.234541 127 127 0
0.295682 0.693337 -0.292959 127 127 0
0.194972 0.328232 0.539404 127 127 0
0.356024 0.367534 -0.214679 127 127 0
0.016639 0.454447 -0.422224 127 127 0
0.379826 -0.613738 -0.169492 127 127 0
0.134869 -0.144131 -0.546851 127 127 0
0.545873 0.655354 0.135165 127 127 0
0.085083 -0.197000 0.423038 127 127 0
-0.128650 0.661631 -0.010140 76 153 0
-0.560934 -0.404628 -0.150734 127 127 0
-0.229869 -0.376260 -0.362612 127 127 0
-0.223658 -0.838799 0.126859 127 127 0
0.149833 0.350494 -0.390838 127 127 0
-0.582682 -0.025055 0.019960 127 127 0
-0.364486 0.228656 0.247983 127 127 0
-0.224262 -0.838799 -0.113057 127 127 0
-0.432024 0.786398 0.247523 127 127 0
0.386170 -0.064674 -0.153837 127 127 0
-0.545561 0.784673 0.072008 127 127 0
0.216364 -0.814395 0.525200 127 127 0
-0.541571 0.336701 -0.208237 127 127 0
0.509794 -0.490071 0.242337 127 127 0
0.120335 -0.507424 0.562584 127 127 0
0.395444 -0.328751 -0.127302 127 127 0
-0.121857 0.461475 0.567119 127 127 0
-0.155441 -0.846602 0.383443 127 0 127
0.411995 -0.739936 0.071641 127 127 0
-0.170491 0.694085 -0.029107 0 127 127
-0.553666 0.707845 0.186917 127 127 0
0.048961 -0.842873 -0.528081 127 127 0
-0.424930 -0.846602 0.177205 127 0 127
-0.107569 -0.805887 0.567655 127 127 0
-0.064746 0.144521 -0.563164 127 127 0
-0.163335 0.882072 -0.368470 0 127 127
-0.040261 -0.056632 -0.565051 127 127 0
0.351214 -0.020548 -0.436747 127 127 0
-0.431149 -0.152024 0.091017 127 127 0
-0.158743 -0.719626 0.558485 127 127 0
0.208241 -0.705546 0.374089 127 127 0
-0.299344 0.693535 -0.310840 127 127 0
0.041058 0.494685 0.575177 127 127 0
-0.471680 -0.602107 -0.333277 127 127 0
0.560737 -0.594296 -0.000396 127 127 0
0.342140 0.742431 0.136918 0 127 127
0.268312 0.097806 0.505168 127 127 0
0.132947 -0.846602 -0.216982 127 0 127
0.414552 -0.244955 0.059972 127 127 0
0.359846 -0.780454 0.441687 127 127 0
-0.388077 0.756590 0.096539 0 127 127
0.029404 0.688995 -0.006875 76 153 0
0.371663 -0.389548 0.198854 127 127 0
-0.436762 -0.124991 0.062028 127 127 0
0.542251 -0.200116 0.150306 127 127 0
-0.494379 0.172865 0.312096 127 127 0
0.302912 0.343376 -0.472040 127 127 0
-0.308802 -0.127365 -0.301933 127 127 0
0.123650 0.676413 0.408563 0 127 127
-0.156587 -0.724244 -0.546963 127 127 0
0.361670 -0.011009 -0.204954 127 127 0
-0.339777 0.321246 -0.462263 127 127 0
-0.334024 0.537649 0.480293 127 127 0
0.159165 0.688688 0.154729 0 127 127
-0.368178 -0.630835 0.452925 127 127 0
-0.417773 -0.806157 0.045268 127 127 0
-0.438636 0.724387 0.013871 0 127 127
0.064090 -0.846602 0.383889 127 0 127
0.552711 -0.684985 -0.089284 127 127 0
0.219573 -0.444526 0.366940 127 127 0
0.510785 0.153843 0.239993 127 127 0
0.037829 -0.395106 0.575527 127 127 0
0.430482 0.524779 -0.359070 127 127 0
-0.411957 0.415904 -0.144535 127 127 0
0.552533 -0.672074 0.102495 127 127 0
0.145749 0.495268 0.555681 127 127 0
-0.409234 -0.270814 0.163747 127 127 0
0.332797 -0.590037 0.261274 127 127 0
0.169932 -0.088635 0.548091 127 127 0
-0.433171 0.456910 -0.069200 127 127 0
0.470095 -0.206339 -0.303317 127 127 0
0.557568 0.178103 -0.053707 127 127 0
-0.052877 -0.437769 -0.564275 127 127 0
-0.342913 -0.296416 0.471304 127 127 0
0.537109 0.654160 0.168506 127 127 0
0.470607 0.394455 0.314032 127 127 0
0.347375 0.796298 -0.071022 0 127 127
0.175714 0.687648 0.265324 0 127 127
-0.207649 0.690107 0.357183 0 127 127
-0.342097 -0.213055 -0.265922 127 127 0
-0.228004 -0.818027 -0.520014 127 127 0
0.523933 0.361017 0.208207 127 127 0
-0.210497 0.771433 -0.317775 0 127 127
-0.134951 0.706671 0.011962 0 127 127
0.404118 0.320945 -0.387430 127 127 0
0.492476 0.695645 0.277532 127 127 0
-0.568850 -0.310533 0.131804 127 127 0
-0.558197 -0.722895 0.172519 127 127 0
0.176007 -0.773848 0.385868 127 127 0
0.341513 0.761201 -0.441968 127 127 0
-0.331264 0.138124 -0.278715 127 127 0
0.533032 0.096027 -0.170094 127 127 0
-0.463700 -0.725180 0.356274 127 127 0
0.210676 -0.846602 0.264721 127 0 127
0.060278 -0.157010 -0.561468 127 127 0
-0.570261 -0.760561 -0.113297 127 127 0
0.503385 -0.400003 0.255938 127 127 0
0.347504 0.733248 0.451716 127 127 0
0.398128 0.271389 -0.118618 127 127 0
0.415512 0.585259 -0.036879 127 127 0
-0.085574 0.004207 -0.415817 127 127 0
-0.106254 0.880189 -0.354752 0 127 127
-0.006594 0.746288 -0.223931 0 127 127
-0.050381 0.887392 -0.375488 0 127 127
0.065700 -0.541511 0.572749 127 127 0
0.120457 -0.846602 0.084728 127 0 127
-0.529772 -0.427337 -0.235048 127 127 0
-0.193974 0.786080 -0.464940 127 127 0
0.384737 0.230906 -0.157568 127 127 0
0.560676 -0.758208 0.014387 127 127 0
0.560030 0.612247 0.065934 127 127 0
-0.344843 -0.104801 0.274630 127 127 0
-0.129550 0.522491 -0.553958 127 127 0
-0.461096 0.786356 0.165242 127 127 0
-0.205687 0.691122 0.016233 76 153 0
0.258498 0.182818 0.338776 127 127 0
-0.417275 -0.846233 -0.261782 127 0 127
0.481747 -0.846602 0.024370 127 0 127
-0.164463 0.303289 0.405839 127 127 0
-0.333001 -0.528095 0.288816 127 127 0
0.027982 -0.585726 -0.564526 127 127 0
0.447206 -0.717757 0.348349 127 127 0
0.400350 -0.108723 -0.111436 127 127 0
0.255829 -0.106637 0.511981 127 127 0
-0.499563 -0.699406 0.303748 127 127 0
-0.497949 0.279567 0.306347 127 127 0
0.268991 0.753325 -0.250192 0 127 127
-0.027574 -0.087001 0.434335 127 127 0
-0.555825 -0.499814 -0.168245 127 127 0
0.201582 -0.844860 -0.477821 127 0 127
0.416423 -0.720814 0.039347 127 127 0
-0.433693 0.727558 -0.065224 127 127 0
-0.104958 0.627374 0.408814 0 127 127
0.114031 0.664296 0.024004 76 153 0
-0.438075 -0.184310 -0.033245 127 127 0
-0.140104 0.616423 0.260734 0 127 127
0.279335 -0.374892 0.320904 127 127 0
-0.136623 -0.077077 0.563888 127 127 0
0.308859 -0.444360 0.291053 127 127 0
-0.141193 -0.757207 -0.400667 127 127 0
0.000872 0.273886 -0.422540 127 127 0
-0.363041 0.511538 -0.445795 127 127 0
-0.089456 -0.818180 0.396995 127 127 0
0.076950 -0.115001 -0.413158 127 127 0
-0.535198 0.783983 -0.130848 127 127 0
-0.240847 0.157331 0.367407 127 127 0
0.124135 -0.289440 -0.549621 127 127 0
-0.093627 -0.137682 0.571864 127 127 0
-0.381588 -0.090174 0.441728 127 127 0
0.410416 0.749566 -0.065551 0 127 127
-0.042417 0.733622 -0.176661 0 127 127
0.151112 -0.477357 0.402465 127 127 0
-0.503576 0.144833 0.297285 127 127 0
-0.307310 0.504070 -0.303337 127 127 0
-0.427753 0.715072 -0.091527 127 127 0
-0.182861 0.658702 0.102945 0 127 127
0.300248 -0.545402 0.485946 127 127 0
-0.402757 0.643919 0.158115 0 127 127
0.415873 0.622558 0.044793 127 127 0
-0.575147 0.328829 0.099700 127 127 0
-0.194811 0.122422 0.547694 127 127 0
-0.023614 -0.838465 -0.263055 127 127 0
0.413714 0.268057 -0.052513 127 127 0
0.413739 0.447273 -0.376307 127 127 0
-0.080274 0.523228 0.574147 127 127 0
0.348096 -0.186384 -0.227123 127 127 0
-0.207506 -0.263971 0.387069 127 127 0
-0.247823 0.815454 -0.206075 0 127 127
-0.372178 -0.671809 -0.224265 127 127 0
0.226995 -0.535993 -0.350133 127 127 0
-0.029159 -0.712932 0.577195 127 127 0
0.079971 0.568928 -0.412388 127 127 0
-0.581860 0.179571 -0.031119 127 127 0
-0.550277 0.782967 0.005080 127 127 0
0.295071 0.716644 0.305762 127 127 0
0.487197 0.057819 0.286737 127 127 0
0.421009 -0.846602 0.129508 127 0 127
-0.006536 -0.846602 0.321670 127 0 127
-0.536638 -0.843561 0.112870 127 0 127
0.394255 -0.603561 -0.397794 127 127 0
-0.582144 -0.243141 -0.025055 127 127 0
-0.077530 0.728607 -0.079458 0 127 127
0.218044 0.212433 -0.355779 127 127 0
0.359369 -0.522316 -0.209188 127 127 0
0.251958 -0.827416 0.505970 127 127 0
0.152891 -0.413411 -0.541758 127 127 0
-0.339114 0.662144 0.474610 127 127 0
-0.447936 0.630552 -0.364800 127 127 0
0.129644 -0.575534 -0.398220 127 127 0
0.321260 -0.570363 -0.263980 127 127 0
-0.045124 -0.830013 -0.367279 127 127 0
0.273138 -0.350109 -0.314600 127 127 0
-0.525771 0.238393 -0.243366 127 127 0
-0.176639 0.862347 -0.309299 0 127 127
-0.569891 -0.277284 0.127044 127 127 0
-0.206877 0.629877 0.544816 127 127 0
-0.270554 0.454233 0.346841 127 127 0
-0.042530 0.069320 -0.421604 127 127 0
-0.109675 0.755298 -0.411216 127 127 0
-0.233136 0.759652 -0.273805 0 127 127
-0.087411 -0.846602 -0.227224 127 0 127
0.394089 0.050653 0.409815 127 127 0
0.252428 -0.458265 0.513920 127 127 0
-0.237996 -0.626990 0.531167 127 127 0
0.553684 0.503199 0.095118 127 127 0
-0.451480 -0.136243 -0.359143 127 127 0
0.194208 0.444552 0.382134 127 127 0
-0.488240 -0.492857 0.321502 127 127 0
-0.243330 -0.243410 0.528331 127 127 0
-0.581053 -0.602578 0.051832 127 127 0
0.173515 -0.454767 -0.380616 127 127 0
0.544027 0.648292 -0.131833 127 127 0
-0.155877 -0.838798 0.028783 127 127 0
0.535016 -0.819980 0.154121 127 127 0
-0.401335 -0.845356 -0.328363 127 0 127
0.017706 0.333470 0.576862 127 127 0
-0.439774 0.503298 -0.002743 127 127 0
0.156900 -0.387471 -0.388128 127 127 0
-0.303223 0.702941 -0.485856 127 127 0
-0.342519 0.523727 0.277217 127 127 0
-0.437286 0.115025 0.387795 127 127 0
-0.042395 0.684110 0.008123 0 127 127
-0.356113 -0.289493 -0.247448 127 127 0
-0.305068 0.506900 -0.484941 127 127 0
0.106295 -0.327354 -0.405406 127 127 0
0.386311 -0.734467 0.165665 127 127 0
0.165173 0.078870 0.549524 127 127 0
0.299398 0.818171 -0.163792 0 127 127
-0.248117 0.699526 -0.514463 127 127 0
-0.158936 0.006591 -0.546340 127 127 0
-0.397683 0.608499 0.190815 127 127 0
-0.317111 -0.846602 0.353327 127 0 127
-0.177020 0.279105 -0.389245 127 127 0
0.281289 -0.769467 -0.302782 127 127 0
-0.582369 0.276163 -0.017850 127 127 0
-0.106027 -0.846602 0.198808 127 0 127
-0.390049 -0.061130 0.206308 127 127 0
-0.347540 0.836852 -0.191536 0 127 127
0.033811 -0.326974 -0.563981 127 127 0
0.206206 -0.120278 -0.363539 127 127 0
0.228697 0.679374 0.025436 76 153 0
-0.509307 0.538559 -0.277863 127 127 0
-0.504521 -0.546188 -0.283639 127 127 0
-0.225197 0.845848 -0.266694 0 127 127
0.189135 -0.780787 -0.366073 127 127 0
0.181640 -0.170127 0.544473 127 127 0
0.215555 -0.538266 0.369474 127 127 0
-0.114200 -0.838465 0.008636 127 127 0
0.058250 0.746599 -0.125900 0 127 127
-0.288783 -0.832501 -0.234671 127 127 0
-0.365138 -0.090243 0.247804 127 127 0
0.499073 -0.838237 -0.201572 127 0 127
0.350211 -0.201246 0.449634 127 127 0
0.407893 0.786402 -0.275651 127 127 0
0.374507 0.571681 0.432173 127 127 0
0.253888 -0.597097 0.512927 127 127 0
-0.074117 -0.710210 0.574341 127 127 0
0.059050 0.775894 -0.334422 0 127 127
0.217030 -0.356927 -0.356296 127 127 0
-0.036390 -0.303647 0.434054 127 127 0
-0.549052 0.650457 -0.189739 127 127 0
-0.366584 -0.385523 0.245252 127 127 0
0.552207 -0.106113 0.104584 127 127 0
0.432364 0.055324 -0.355433 127 127 0
0.295204 0.645056 0.153872 0 127 127
-0.261187 0.097815 -0.341572 127 127 0
0.253665 0.741993 -0.008585 0 127 127
-0.292808 0.421243 0.503958 127 127 0
0.346975 -0.846602 0.174323 127 0 127
-0.570886 -0.639548 0.122495 127 127 0
0.415770 0.156336 -0.034049 127 127 0
-0.368823 0.721319 -0.229758 127 127 0
0.208658 0.853430 -0.277114 0 127 127
0.402950 0.779309 -0.369517 127 127 0
0.254556 -0.846185 0.415464 127 0 127
-0.239606 -0.225629 -0.518310 127 127 0
0.457091 0.027735 -0.322835 127 127 0
0.305127 0.785497 0.430669 127 127 0
0.130228 0.478616 0.410162 127 127 0
-0.056568 0.654668 0.118001 0 127 127
0.557531 -0.768081 0.066195 127 127 0
0.518437 -0.151277 0.222219 127 127 0
-0.264076 0.537210 -0.339464 127 127 0
0.067961 0.742957 -0.559284 127 127 0
0.091101 -0.424433 0.568789 127 127 0
0.470877 0.786266 0.080098 127 127 0
-0.439789 0.372212 -0.002041 127 127 0
0.448073 -0.407056 -0.335123 127 127 0
-0.468782 -0.846602 0.132589 127 0 127
-0.055732 0.477066 -0.420452 127 127 0
-0.560721 -0.007991 0.163778 127 127 0
-0.282908 0.253884 0.509485 127 127 0
-0.039303 -0.430195 0.576877 127 127 0
-0.264295 0.108156 0.351356 127 127 0
-0.335561 0.240069 0.477196 127 127 0
-0.383738 0.809250 -0.095723 0 127 127
0.074638 0.786102 -0.502143 127 127 0
-0.275022 -0.236580 -0.331709 127 127 0
0.460730 0.270048 -0.317373 127 127 0
-0.250651 -0.838561 -0.163495 127 127 0
0.534112 -0.668891 -0.165757 127 127 0
0.074026 0.693364 0.002320 76 153 0
0.417205 -0.307654 0.021948 127 127 0
0.020451 -0.645388 0.576776 127 127 0
-0.554550 -0.076882 -0.172331 127 127 0
0.122932 -0.587012 0.412405 127 127 0
0.179423 -0.400496 0.389930 127 127 0
0.557263 -0.626769 -0.056965 127 127 0
0.259210 -0.509075 -0.498192 127 127 0
-0.002412 -0.603927 0.434593 127 127 0
-0.068506 0.776628 -0.192134 0 127 127
-0.228993 0.271024 -0.362839 127 127 0
-0.102629 -0.662880 -0.558330 127 127 0
0.352601 -0.252641 -0.219963 127 127 0
0.099690 0.719365 0.567098 127 127 0
-0.342402 -0.846602 -0.084632 127 0 127
0.414477 0.352193 0.388452 127 127 0
0.262364 0.640283 0.171685 0 127 127
0.379087 0.362617 0.183193 127 127 0
-0.396927 -0.448830 -0.180274 127 127 0
-0.533719 -0.554606 0.238488 127 127 0
-0.221373 0.701672 0.112912 0 127 127
-0.141298 0.362126 0.413585 127 127 0
-0.156000 -0.117758 -0.396903 127 127 0
-0.582431 -0.342368 -0.015876 127 127 0
-0.288286 0.786047 0.459040 127 127 0
0.412621 -0.476856 -0.058740 127 127 0
-0.032010 -0.838465 0.050262 127 127 0
-0.064116 -0.846602 0.316537 127 0 127
0.001722 0.629776 0.210897 0 127 127
-0.102861 -0.220402 -0.411996 127 127 0
-0.171772 0.648082 0.142577 0 127 127
0.009185 -0.543732 0.434236 127 127 0
0.243761 0.642033 0.336468 0 127 127
0.268782 0.174041 -0.492910 127 127 0
0.490947 0.249150 0.280134 127 127 0
0.309907 -0.444969 -0.467244 127 127 0
-0.248499 -0.669138 0.362677 127 127 0
0.038894 0.734853 -0.098866 0 127 127
0.552225 -0.105835 -0.092396 127 127 0
0.175985 0.643933 0.158064 0 127 127
0.166386 0.560091 0.551969 127 127 0
0.124328 0.584746 -0.399853 127 127 0
0.126219 -0.060335 0.411394 127 127 0
-0.329302 0.370742 0.480991 127 127 0
-0.433176 0.679979 -0.068283 127 127 0
0.279801 -0.140787 0.320466 127 127 0
0.416997 0.697320 -0.016250 127 127 0
-0.578438 -0.394387 -0.066545 127 127 0
0.488120 -0.744841 -0.273171 127 127 0
0.030507 0.527525 0.432733 127 127 0
0.403614 0.430752 -0.099459 127 127 0
-0.557188 -0.584022 0.176108 127 127 0
-0.582518 0.322108 0.025239 127 127 0
-0.579274 -0.016395 -0.058738 127 127 0
-0.383443 -0.269330 0.217979 127 127 0
-0.302245 0.627072 0.220988 0 127 127
0.255167 -0.530785 0.341505 127 127 0
-0.019568 0.585535 0.376006 0 127 127
0.126372 -0.400862 0.411347 127 127 0
0.214960 0.804204 -0.190590 0 127 127
-0.022166 -0.182408 -0.422415 127 127 0
0.162643 0.682059 -0.012194 76 153 0
-0.406907 0.650836 -0.157685 127 127 0
0.345985 0.028426 0.452882 127 127 0
-0.377163 -0.846602 0.098404 127 0 127
-0.171360 -0.019306 0.554932 127 127 0
0.015723 -0.715051 -0.422173 127 127 0
-0.407197 0.257812 -0.406719 127 127 0
-0.379306 0.454639 0.225076 127 127 0
0.023629 -0.846602 -0.359099 127 0 127
-0.401416 -0.515690 0.424366 127 127 0
0.006043 0.468135 0.577224 127 127 0
0.309897 0.841975 -0.258228 0 127 127
-0.241342 -0.308129 0.367188 127 127 0
-0.075401 -0.846602 0.480560 127 0 127
-0.516085 0.009339 0.275032 127 127 0
0.278667 0.754470 -0.311061 127 127 0
-0.214105 -0.838799 -0.148914 127 127 0
0.520824 0.255984 0.215789 127 127 0
0.101144 0.786354 0.486888 127 127 0
-0.021375 0.598856 0.411853 0 127 127
-0.477819 -0.845323 0.256349 127 0 127
-0.005032 0.862209 -0.403002 0 127 127
0.088612 0.104176 0.422177 127 127 0
-0.563208 0.061896 -0.142786 127 127 0
-0.301432 -0.811672 -0.272823 127 127 0
0.387981 -0.021927 0.161279 127 127 0
-0.300591 0.755962 -0.310977 127 127 0
-0.438631 -0.325827 0.044309 127 127 0
0.084077 0.230592 -0.411340 127 127 0
0.405734 -0.218259 0.102854 127 127 0
-0.510824 0.570965 0.288869 127 127 0
-0.565966 -0.260924 -0.132864 127 127 0
0.094596 -0.844914 0.515418 127 0 127
-0.036024 0.094807 -0.565184 127 127 0
0.414210 0.786141 0.238983 127 127 0
0.543519 0.592716 -0.141278 127 127 0
-0.565479 -0.080264 -0.134636 127 127 0
-0.382974 -0.846602 -0.196204 127 0 127
-0.337930 -0.010068 -0.463393 127 127 0
-0.335214 -0.143388 0.286119 127 127 0
-0.128250 0.557359 -0.405832 127 127 0
-0.063095 0.724135 -0.141255 0 127 127
0.259088 -0.618689 -0.498260 127 127 0
-0.309072 -0.409977 0.493977 127 127 0
0.532714 -0.592047 -0.169997 127 127 0
-0.432168 -0.285677 -0.073045 127 127 0
0.024226 0.673514 0.332465 0 127 127
-0.364320 -0.846602 -0.235115 127 0 127
0.368670 -0.150804 0.433957 127 127 0
-0.464347 0.241029 0.355288 127 127 0
0.560254 -0.360972 0.027988 127 127 0
0.553443 0.697708 0.096670 127 127 0
-0.503318 -0.603979 -0.285582 127 127 0
0.083043 -0.819155 0.392405 127 127 0
0.318589 -0.846523 -0.382176 127 0 127
-0.578917 -0.577302 0.074678 127 127 0
-0.289668 0.025026 -0.319363 127 127 0
-0.579741 0.470477 -0.053751 127 127 0
0.119688 -0.307375 0.413402 127 127 0
-0.211807 -0.789924 -0.363735 127 127 0
0.069499 -0.319504 0.572156 127 127 0
-0.323524 -0.846602 0.259722 127 0 127
-0.495650 0.201664 0.310049 127 127 0
-0.421533 -0.106387 0.127578 127 127 0
0.528128 0.189613 0.196437 127 127 0
-0.322767 -0.597996 -0.473604 127 127 0
0.115871 -0.846602 0.348850 127 0 127
-0.551879 -0.825781 0.172277 127 127 0
0.337264 0.499320 0.255184 127 127 0
-0.176304 -0.133539 0.401290 127 127 0
0.539477 -0.441244 -0.147592 127 127 0
0.465303 -0.592224 -0.310098 127 127 0
0.452596 -0.371852 0.341096 127 127 0
0.371049 -0.133467 -0.188251 127 127 0
-0.108315 -0.352644 -0.557442 127 127 0
-0.078911 -0.684401 0.429172 127 127 0
0.532901 0.745098 0.181483 127 127 0
-0.310143 -0.507879 -0.300669 127 127 0
0.560912 0.321536 0.005227 127 127 0
-0.428100 -0.067758 -0.090007 127 127 0
-0.437168 0.519058 -0.376455 127 127 0
0.560027 0.713481 -0.023128 127 127 0
-0.159359 0.092946 -0.395943 127 127 0
0.195619 -0.605575 -0.527375 127 127 0
-0.104217 0.299640 0.423955 127 127 0
0.560520 0.478003 -0.007333 127 127 0
-0.268170 0.247212 -0.336457 127 127 0
-0.383018 -0.846602 -0.273430 127 0 127
0.406719 0.792188 -0.018401 0 127 127
-0.560168 -0.454015 0.165511 127 127 0
-0.205356 0.733967 0.543943 127 127 0
-0.257683 -0.569055 -0.344572 127 127 0
-0.397855 0.505247 -0.416022 127 127 0
-0.070069 0.153911 0.430802 127 127 0
0.278182 0.714115 0.222767 0 127 127
0.176515 0.613075 -0.379188 127 127 0
0.538849 -0.498884 -0.149740 127 127 0
0.260626 0.686923 -0.002376 0 127 127
-0.164359 -0.846602 0.001998 127 0 127
-0.336049 -0.013328 0.285277 127 127 0
-0.126606 -0.846151 -0.486435 127 0 127
-0.518115 -0.495901 -0.259158 127 127 0
-0.100833 -0.368555 -0.412952 127 127 0
-0.117283 -0.838465 -0.128946 127 127 0
0.232601 0.648312 0.141722 0 127 127
0.373268 0.189044 0.195782 127 127 0
-0.551490 0.554985 0.199735 127 127 0
-0.246044 -0.148404 -0.515372 127 127 0
-0.104880 -0.633059 -0.557978 127 127 0
0.316380 0.613850 -0.269922 127 127 0
0.341286 -0.846602 -0.247892 127 0 127
0.410570 -0.190914 0.081748 127 127 0
-0.335058 0.343319 -0.274186 127 127 0
0.214873 -0.122329 0.531064 127 127 0
0.379343 -0.791842 -0.410906 127 127 0
-0.359181 -0.846602 0.190295 127 0 127
-0.399937 0.410801 -0.413687 127 127 0
0.166723 0.436687 0.395937 127 127 0
-0.439509 -0.432071 -0.373212 127 127 0
-0.556390 0.442603 0.178595 127 127 0
0.036444 0.632935 0.432235 127 127 0
0.092222 0.211131 0.421296 127 127 0
-0.578610 -0.082285 0.077501 127 127 0
0.372068 -0.376036 -0.186114 127 127 0
-0.079436 0.731263 0.573211 127 127 0
-0.490964 -0.401671 -0.305262 127 127 0
-0.574398 0.705172 0.104502 127 127 0
0.114404 -0.173709 -0.402902 127 127 0
0.277531 -0.409824 0.322599 127 127 0
0.416075 0.430321 -0.030702 127 127 0
-0.399894 0.491015 -0.174019 127 127 0
0.386507 -0.214245 -0.152960 127 127 0
-0.482751 0.105700 0.329521 127 127 0
0.071777 -0.846602 -0.190501 127 0 127
0.360784 -0.201881 -0.206709 127 127 0
0.375026 -0.047757 -0.179718 127 127 0
-0.217369 -0.044370 0.539641 127 127 0
0.222278 0.786142 -0.392968 127 127 0
0.375848 0.157882 -0.177868 127 127 0
-0.582803 0.027528 0.016071 127 127 0
0.315510 -0.165103 0.283091 127 127 0
-0.151934 -0.787546 -0.547763 127 127 0
-0.415139 0.179376 0.411078 127 127 0
-0.231341 0.325795 0.373429 127 127 0
-0.215321 0.609620 0.286123 0 127 127
0.199203 0.696879 -0.367223 127 127 0
-0.020118 -0.846602 0.435027 127 0 127
-0.576970 -0.521798 0.088016 127 127 0
-0.274792 -0.648716 0.513824 127 127 0
-0.140280 0.766693 -0.300082 0 127 127
0.041090 0.810014 -0.252713 0 127 127
-0.044116 0.645921 -0.564828 127 127 0
0.405920 0.487662 -0.090019 127 127 0
-0.522054 0.185351 0.263188 127 127 0
0.558199 0.659510 0.056491 127 127 0
0.144626 0.750812 -0.240814 0 127 127
-0.221325 0.727302 -0.367261 127 127 0
-0.084657 0.435931 0.573265 127 127 0
0.211541 0.824546 -0.348398 0 127 127
-0.582244 0.036677 -0.021849 127 127 0
-0.451419 0.343229 0.371415 127 127 0
-0.091929 -0.491575 0.426773 127 127 0
0.167669 -0.692256 -0.383370 127 127 0
0.313508 -0.445244 -0.273418 127 127 0
-0.439702 0.030613 0.014013 127 127 0
0.000557 0.493739 -0.565598 127 127 0
-0.013019 -0.838528 -0.330228 127 127 0
-0.226157 0.651557 0.129610 0 127 127
0.027256 0.361543 0.432965 127 127 0
0.373396 0.424314 0.195204 127 127 0
0.352335 0.807492 -0.096994 0 127 127
0.546400 -0.121932 0.133039 127 127 0
0.059177 0.679829 0.024100 0 127 127
0.209588 0.661975 -0.361112 127 127 0
-0.435975 0.758090 -0.059126 127 127 0
0.062071 -0.734399 -0.416431 127 127 0
-0.419152 0.681855 0.007311 76 153 0
-0.140725 0.059607 -0.401800 127 127 0
-0.130892 0.424768 0.565142 127 127 0
0.547792 -0.545050 0.126684 127 127 0
-0.078975 -0.238360 -0.417037 127 127 0
-0.058703 0.756331 -0.150992 0 127 127
0.280093 -0.832292 -0.474642 127 127 0
-0.582326 -0.497081 0.031395 127 127 0
0.115788 -0.105314 -0.402477 127 127 0
0.109027 0.778834 -0.345395 0 127 127
0.549004 0.224642 0.121139 127 127 0
0.076163 0.717621 -0.041990 0 127 127
-0.292199 -0.838465 0.074201 127 127 0
-0.161788 -0.226043 0.406866 127 127 0
0.199846 0.723277 -0.138052 0 127 127
-0.284988 -0.595037 -0.323324 127 127 0
0.057327 0.366660 -0.417290 127 127 0
-0.429218 0.138610 0.097518 127 127 0
-0.419338 0.529549 0.133920 127 127 0
-0.321362 -0.653102 -0.474537 127 127 0
0.323883 -0.148353 -0.457726 127 127 0
-0.046333 0.205891 -0.564862 127 127 0
0.129948 -0.027887 0.559312 127 127 0
-0.307656 -0.838465 -0.049684 127 127 0
0.471392 -0.070124 -0.301258 127 127 0
0.114968 -0.846602 -0.104751 127 0 127
0.039561 -0.598217 -0.420162 127 127 0
0.064637 -0.087457 0.572528 127 127 0
0.498857 0.303138 0.265277 127 127 0
-0.283085 -0.369315 0.336814 127 127 0
-0.564500 -0.612371 0.150104 127 127 0
-0.355421 0.247734 -0.248558 127 127 0
-0.575072 0.047191 -0.088104 127 127 0
-0.210590 -0.182385 -0.373321 127 127 0
-0.342542 -0.633067 0.277190 127 127 0
0.353255 0.333263 0.231090 127 127 0
-0.230429 -0.024896 -0.522314 127 127 0
-0.522844 -0.611966 0.261559 127 127 0
-0.214395 -0.836214 -0.289002 127 127 0
-0.053995 -0.291125 0.576034 127 127 0
0.557561 -0.791562 -0.041551 127 127 0
0.279731 0.307771 -0.486666 127 127 0
0.548087 -0.156228 0.125328 127 127 0
0.374579 -0.414051 0.428743 127 127 0
-0.050523 0.311889 -0.420878 127 127 0
0.560489 -0.060022 0.020425 127 127 0
0.146360 -0.192327 0.404288 127 127 0
0.094218 0.404945 -0.556164 127 127 0
0.509056 -0.314301 0.243970 127 127 0
0.000360 -0.846602 -0.116711 127 0 127
0.244528 -0.846602 0.315822 127 0 127
-0.200502 0.704494 0.390428 127 127 0
-0.223834 -0.493830 0.377933 127 127 0
0.327928 0.129274 -0.255791 127 127 0
0.180015 -0.846602 -0.334027 127 0 127
-0.364066 -0.716966 -0.236795 127 127 0
0.184577 -0.623348 0.387495 127 127 0
0.404546 -0.181859 -0.095643 127 127 0
-0.058172 0.605347 0.411074 0 127 127
-0.224256 0.293760 0.377739 127 127 0
-0.056570 -0.838465 0.127356 127 127 0
-0.344339 0.141213 -0.458961 127 127 0
0.137500 0.613979 -0.548113 127 127 0
-0.296397 0.786402 0.416896 127 127 0
0.014205 -0.419990 0.576971 127 127 0
-0.542119 0.299673 0.219017 127 127 0
-0.081384 -0.613109 0.428717 127 127 0
0.544967 -0.208399 -0.127541 127 127 0
0.556948 0.259299 0.072450 127 127 0
-0.240587 0.159613 -0.355531 127 127 0
-0.031009 -0.846602 -0.123217 127 0 127
0.500469 0.171817 -0.248972 127 127 0
-0.439886 -0.374861 0.009600 127 127 0
-0.535406 0.155760 0.234700 127 127 0
-0.391531 0.049871 0.433333 127 127 0
-0.438381 0.285252 0.043847 127 127 0
0.004523 0.760800 -0.163186 0 127 127
0.142941 0.617874 0.255316 0 127 127
0.381851 0.447321 0.177260 127 127 0
0.041238 0.382334 -0.563287 127 127 0
-0.139482 -0.711974 0.414139 127 127 0
0.206219 -0.462366 -0.523278 127 127 0
0.303087 0.068209 0.297197 127 127 0
0.472940 0.208692 0.310288 127 127 0
-0.128454 0.724272 -0.051790 0 127 127
-0.120312 0.576012 0.419877 127 127 0
0.124247 -0.272129 0.561726 127 127 0
-0.161543 -0.846602 0.466012 127 0 127
0.337769 -0.478505 -0.242389 127 127 0
0.221026 0.745281 0.366439 127 127 0
0.066675 0.764260 -0.291004 0 127 127
0.560161 0.348355 0.030995 127 127 0
-0.318558 -0.165046 -0.292210 127 127 0
0.395636 0.332459 -0.126671 127 127 0
-0.276068 -0.143735 0.342654 127 127 0
-0.579298 -0.148164 -0.058476 127 127 0
-0.296984 0.292797 -0.313060 127 127 0
-0.387666 -0.721906 -0.198319 127 127 0
0.190283 -0.028137 0.541203 127 127 0
-0.034549 0.669369 0.232601 0 127 127
0.088739 0.304319 0.568534 127 127 0
0.162540 0.693317 -0.385803 127 127 0
-0.098124 -0.052793 -0.413153 127 127 0
0.485942 -0.113910 -0.276869 127 127 0
-0.578778 0.378826 -0.064040 127 127 0
-0.224092 0.374718 0.377803 127 127 0
0.183658 -0.005062 -0.375860 127 127 0
0.010695 0.618369 0.416707 0 127 127
0.501659 0.126797 -0.246538 127 127 0
0.276886 0.523678 0.501135 127 127 0
0.416438 -0.596185 0.039168 127 127 0
0.001779 -0.846602 -0.224153 127 0 127
0.013476 -0.846602 -0.389081 127 0 127
0.334444 0.249387 -0.449981 127 127 0
0.540883 -0.786187 -0.141846 127 127 0
-0.203426 -0.384672 -0.532731 127 127 0
0.290545 0.136639 -0.479973 127 127 0
-0.562968 -0.350487 -0.143514 127 127 0
-0.089398 -0.161401 -0.560395 127 127 0
-0.246641 0.012560 -0.351962 127 127 0
0.402712 -0.251304 -0.103149 127 127 0
-0.472366 0.589860 -0.336620 127 127 0
-0.454676 -0.355148 0.367412 127 127 0
