ply
format ascii 1.0
element vertex 612
property float x
property float y
property float z
property float nx
property float ny
property float nz
property uchar red
property uchar green
property uchar blue
property float opacity
end_header
-0.435823 -0.553434 0.091234 0.980482 0.000923 -0.196608 130 130 130 1.000000
0.556558 -0.533465 0.039691 -0.996290 0.062634 -0.059020 255 255 255 1.000000
0.463780 0.653920 0.001125 -0.000000 -0.969811 -0.243859 130 130 130 1.000000
0.456036 -0.842534 -0.147964 -0.265611 0.960094 0.087582 255 255 255 1.000000
-0.431456 -0.752598 0.110770 -0.970352 -0.000148 0.241695 255 255 255 1.000000
-0.442792 -0.796107 0.375933 0.757119 0.077405 -0.648675 255 255 255 1.000000
0.445950 -0.423866 0.344275 -0.802563 0.056479 -0.593888 255 255 255 1.000000
0.342552 0.074487 -0.439005 0.621833 -0.028427 -0.782633 130 130 130 1.000000
0.081793 0.711922 0.566862 -0.163095 -0.056267 -0.985005 255 255 255 1.000000
-0.206354 -0.462539 0.392634 -0.450869 -0.001277 0.892589 255 255 255 1.000000
-0.186172 -0.357516 0.402195 -0.404258 -0.001686 0.914643 255 255 255 1.000000
0.338684 0.332977 0.261747 -0.807297 0.004371 -0.590129 130 130 130 1.000000
0.078413 0.146390 0.429831 -0.206646 0.003647 -0.978409 130 130 130 1.000000
-0.307364 0.754189 -0.016345 -0.308461 -0.911368 -0.272507 255 255 255 1.000000
-0.141785 0.820080 -0.393266 0.305310 -0.280425 0.910026 255 255 255 1.000000
0.489583 0.373217 -0.263372 -0.880528 0.011597 0.473852 255 255 255 1.000000
0.543776 -0.258663 -0.117345 0.975068 -0.047195 -0.216830 130 130 130 1.000000
0.524804 0.421305 -0.183498 0.942723 -0.008891 -0.333458 130 130 130 1.000000
-0.014389 0.237579 -0.427130 0.007618 0.004001 0.999963 130 130 130 1.000000
-0.577853 0.530559 -0.038293 0.996948 0.002739 0.078021 255 255 255 1.000000
-0.362858 0.716778 -0.440457 0.617738 -0.058558 0.784200 255 255 255 1.000000
-0.202646 -0.357308 -0.382394 0.442270 0.001686 0.896880 130 130 130 1.000000
0.494089 -0.584693 0.266657 0.886822 -0.065537 0.457440 130 130 130 1.000000
0.257596 -0.739991 -0.494990 0.471269 -0.074247 -0.878859 130 130 130 1.000000
0.249991 0.014368 -0.339521 0.602787 -0.003133 -0.797896 255 255 255 1.000000
-0.552737 0.626968 -0.166995 -0.952438 0.016142 -0.304306 130 130 130 1.000000
-0.409551 0.782334 -0.336890 0.028635 -0.998739 0.041245 255 255 255 1.000000
-0.366936 0.537954 -0.437294 -0.625940 -0.002323 -0.779868 130 130 130 1.000000
0.348296 0.335216 -0.235614 0.829810 -0.004382 -0.558029 255 255 255 1.000000
0.546061 0.370746 -0.107121 -0.979919 0.011737 0.199048 255 255 255 1.000000
-0.107146 0.782334 -0.458261 0.013612 0.998129 0.059605 130 130 130 1.000000
0.409616 0.679401 0.071171 -0.983275 0.032348 -0.179230 255 255 255 1.000000
-0.243708 0.126784 0.371607 0.536874 0.003569 -0.843655 130 130 130 1.000000
-0.445847 -0.529324 0.372467 0.763155 0.062410 -0.643195 255 255 255 1.000000
-0.086153 0.779536 0.433229 -0.159996 -0.372488 0.914141 255 255 255 1.000000
0.247213 0.247229 -0.341676 -0.596289 0.004039 0.802760 130 130 130 1.000000
0.042290 -0.114354 0.571976 -0.093787 0.039068 -0.994825 255 255 255 1.000000
0.470922 0.576678 0.307682 0.847713 -0.000143 0.530455 130 130 130 1.000000
-0.060048 -0.265142 0.572394 0.086002 0.047558 -0.995159 255 255 255 1.000000
-0.259863 0.112192 0.517264 -0.437407 -0.026300 0.898879 130 130 130 1.000000
-0.099835 0.769506 -0.310580 0.000000 -0.965926 -0.258819 130 130 130 1.000000
-0.309391 0.271288 0.490037 0.524648 0.017338 -0.851142 255 255 255 1.000000
0.521131 0.782334 -0.041376 0.094687 0.995471 -0.008440 130 130 130 1.000000
0.166277 -0.010069 0.546348 0.311729 -0.033180 0.949592 130 130 130 1.000000
0.009444 0.390234 0.574123 0.036108 -0.010641 0.999291 130 130 130 1.000000
0.553951 0.540959 -0.056532 0.993917 -0.002154 -0.110107 130 130 130 1.000000
0.183130 0.655059 0.013968 0.000000 -0.919626 0.392794 130 130 130 1.000000
0.406325 -0.252614 0.121640 -0.963738 0.002094 -0.266843 130 130 130 1.000000
-0.579094 0.478550 -0.016177 -0.999218 -0.005667 -0.039122 130 130 130 1.000000
0.494753 0.308891 -0.253225 -0.889806 0.015223 0.456086 255 255 255 1.000000
-0.275048 -0.157418 0.509527 -0.463911 -0.041491 0.884910 130 130 130 1.000000
0.166434 0.175852 0.401139 -0.409862 0.003761 -0.912140 130 130 130 1.000000
-0.297649 -0.241860 -0.484852 0.503624 0.046248 0.862684 255 255 255 1.000000
0.117457 0.486000 0.419710 0.296759 -0.004968 0.954939 255 255 255 1.000000
0.171100 0.581939 -0.386991 0.420534 -0.005340 -0.907261 255 255 255 1.000000
-0.579288 0.578217 0.022126 -0.999601 -0.000057 0.028256 130 130 130 1.000000
-0.173773 0.067501 0.407561 0.375536 0.003339 -0.926802 130 130 130 1.000000
-0.061829 -0.842534 -0.139155 0.000000 -1.000000 -0.000000 255 255 255 1.000000
0.249728 -0.490643 0.351855 0.602176 -0.001167 0.798363 255 255 255 1.000000
-0.406940 0.657609 -0.006195 -0.000000 -0.792935 -0.609306 130 130 130 1.000000
0.309619 0.295755 -0.285050 -0.740437 0.004228 0.672112 130 130 130 1.000000
-0.554532 -0.320795 0.172944 -0.954725 -0.050687 0.293141 130 130 130 1.000000
0.405574 -0.021449 -0.380863 -0.732356 0.033823 0.680082 255 255 255 1.000000
0.287324 -0.153904 -0.477842 0.524429 -0.041288 -0.850453 130 130 130 1.000000
-0.579071 0.202131 -0.016885 -0.998960 -0.021237 -0.040345 130 130 130 1.000000
0.141561 0.536174 -0.541513 0.268529 -0.002423 -0.963269 130 130 130 1.000000
-0.444214 -0.402257 0.011558 -0.999918 -0.001511 0.012682 255 255 255 1.000000
-0.229421 -0.758936 -0.367966 -0.504126 -0.000123 -0.863630 255 255 255 1.000000
0.324923 0.726854 -0.151402 0.000000 0.965926 0.258819 255 255 255 1.000000
-0.230649 0.766176 -0.298156 0.000000 -0.965926 -0.258819 130 130 130 1.000000
0.166796 0.848797 -0.284673 -0.174329 0.826475 0.535302 130 130 130 1.000000
-0.441876 -0.080644 -0.364842 -0.757308 -0.037166 -0.651999 130 130 130 1.000000
0.382693 -0.803771 -0.404025 -0.690519 0.077827 0.719115 255 255 255 1.000000
-0.434002 -0.008938 -0.087251 0.976507 0.003042 0.215465 130 130 130 1.000000
0.552217 -0.481023 0.083108 0.989006 -0.059696 0.135290 130 130 130 1.000000
-0.420549 0.585652 -0.398281 0.710815 0.053284 0.701358 255 255 255 1.000000
-0.071711 0.861330 -0.327622 -0.059010 -0.815689 -0.575473 255 255 255 1.000000
0.168789 -0.131574 0.545444 0.316097 -0.040027 0.947882 130 130 130 1.000000
-0.051819 0.675440 0.347294 -0.041065 -0.994837 0.092802 255 255 255 1.000000
-0.416037 -0.574578 0.404988 -0.710867 -0.064968 0.700320 130 130 130 1.000000
0.186434 -0.773991 0.539092 0.346465 -0.076168 0.934966 130 130 130 1.000000
0.389334 0.363637 -0.159099 0.924438 -0.004492 -0.381307 255 255 255 1.000000
-0.444155 -0.675278 0.013442 0.999855 0.000449 -0.017032 130 130 130 1.000000
0.024665 -0.842534 -0.086528 0.000000 -1.000000 -0.000000 255 255 255 1.000000
-0.036849 0.295696 -0.426424 -0.059456 -0.004226 -0.998222 255 255 255 1.000000
-0.301322 -0.514924 -0.315421 0.670106 0.001073 0.742265 130 130 130 1.000000
0.265836 0.555008 -0.327153 -0.639145 0.005235 0.769068 130 130 130 1.000000
0.501496 0.782334 -0.161504 0.091186 0.995388 -0.029809 130 130 130 1.000000
-0.323106 0.430853 0.306522 0.720316 0.004753 -0.693629 130 130 130 1.000000
-0.305503 -0.842534 0.170632 0.000000 -1.000000 -0.000000 255 255 255 1.000000
-0.239381 0.646564 0.148246 0.000000 0.965926 0.258819 255 255 255 1.000000
-0.318372 -0.185599 0.484499 0.539914 0.043066 -0.840618 255 255 255 1.000000
-0.308645 0.257029 -0.478348 -0.523346 -0.018142 -0.851927 130 130 130 1.000000
-0.141117 0.427997 -0.547321 -0.228723 -0.008514 -0.973454 130 130 130 1.000000
-0.439875 -0.239599 0.067288 0.989958 0.002144 -0.141349 130 130 130 1.000000
0.533049 0.693464 -0.158424 0.956128 0.047554 -0.289063 130 130 130 1.000000
-0.059146 0.666742 0.025017 0.000000 -0.338669 0.940905 130 130 130 1.000000
-0.139051 0.215752 0.419880 -0.295421 -0.003916 0.955359 255 255 255 1.000000
-0.168552 0.682125 0.255333 -0.163966 -0.986411 0.010419 255 255 255 1.000000
-0.181919 0.172403 -0.536231 -0.300397 -0.022907 -0.953539 130 130 130 1.000000
-0.019647 0.616181 0.261634 0.000000 -0.965926 -0.258819 130 130 130 1.000000
0.325688 -0.010593 0.464215 0.591957 -0.033212 0.805285 130 130 130 1.000000
0.282344 -0.842534 0.022744 0.000000 1.000000 0.000000 130 130 130 1.000000
0.506910 0.674519 -0.228173 -0.910480 -0.038605 0.411748 255 255 255 1.000000
0.380323 -0.813951 0.418524 -0.686239 0.078388 -0.723140 255 255 255 1.000000
0.387432 0.258431 0.411416 -0.700971 0.018065 -0.712961 255 255 255 1.000000
-0.045556 0.698434 0.573685 0.060538 -0.049882 -0.996919 255 255 255 1.000000
0.351980 -0.013155 0.242324 -0.838161 0.003025 -0.545415 130 130 130 1.000000
0.122153 0.700683 0.041689 0.134434 -0.967611 -0.213673 255 255 255 1.000000
-0.405695 0.480884 -0.403201 0.694088 0.005535 0.719869 255 255 255 1.000000
-0.566544 0.578252 -0.114703 0.977170 0.000055 0.212458 255 255 255 1.000000
0.507665 0.179355 -0.226429 0.912318 -0.022519 -0.408863 130 130 130 1.000000
0.210147 -0.842534 0.214955 0.000000 1.000000 0.000000 130 130 130 1.000000
0.555975 -0.264235 0.047256 -0.996247 0.047497 -0.072355 255 255 255 1.000000
-0.519586 -0.217634 -0.248013 -0.893627 -0.044883 -0.446560 130 130 130 1.000000
0.012005 -0.779139 0.574043 0.040505 -0.076457 0.996250 130 130 130 1.000000
-0.060895 -0.613590 -0.424242 -0.114979 -0.000689 -0.993368 255 255 255 1.000000
-0.434053 -0.721099 -0.087021 -0.976628 -0.000271 -0.214936 255 255 255 1.000000
0.019108 -0.765426 0.438225 0.069704 -0.000098 0.997568 255 255 255 1.000000
0.554274 0.174231 0.065245 0.994309 -0.022808 0.104062 130 130 130 1.000000
0.311487 -0.725159 -0.461978 -0.565942 0.073429 0.821169 255 255 255 1.000000
0.098729 -0.111138 -0.551838 -0.192979 0.038874 0.980432 255 255 255 1.000000
-0.355700 -0.126114 -0.256272 0.795679 0.002586 0.605713 130 130 130 1.000000
0.164398 -0.842534 0.087797 0.000000 -1.000000 -0.000000 255 255 255 1.000000
0.346862 -0.842534 -0.081584 0.000000 -1.000000 -0.000000 255 255 255 1.000000
-0.462542 -0.572994 0.351476 0.792518 0.064879 -0.606388 255 255 255 1.000000
-0.043722 0.607393 0.437995 -0.075337 -0.005440 0.997143 255 255 255 1.000000
0.421445 0.396631 -0.018252 0.998413 -0.004620 -0.056130 255 255 255 1.000000
-0.281976 -0.256845 -0.331914 -0.625404 -0.002077 -0.780298 255 255 255 1.000000
-0.574722 0.364831 0.081046 -0.991197 -0.012068 0.131843 130 130 130 1.000000
0.293070 -0.037106 -0.474444 -0.534524 0.034700 0.844441 255 255 255 1.000000
-0.495997 -0.375701 -0.290654 0.851763 0.053777 0.521160 255 255 255 1.000000
0.415255 -0.018658 0.382011 -0.749594 0.033677 -0.661041 255 255 255 1.000000
0.460863 -0.352432 0.322888 0.829140 -0.052473 0.556573 130 130 130 1.000000
-0.326332 -0.499640 0.479090 -0.553568 -0.060754 0.830585 130 130 130 1.000000
0.047304 -0.391405 0.435299 0.134798 -0.001553 0.990872 255 255 255 1.000000
0.302674 0.474851 0.480096 0.551941 -0.005875 0.833862 130 130 130 1.000000
-0.101752 -0.152523 -0.555084 -0.159404 -0.041218 -0.986353 130 130 130 1.000000
0.557315 -0.281987 -0.003472 -0.998683 0.048503 0.016736 255 255 255 1.000000
0.267544 -0.129925 0.501669 -0.489691 0.039935 -0.870981 255 255 255 1.000000
0.073048 0.607858 0.431030 -0.194213 0.005441 -0.980944 130 130 130 1.000000
0.391274 -0.113814 0.166745 -0.928684 0.002633 -0.370862 130 130 130 1.000000
-0.557997 0.764565 0.161017 -0.958961 0.081072 0.271702 130 130 130 1.000000
0.208656 0.734644 0.530335 -0.385681 -0.066980 -0.920198 255 255 255 1.000000
0.224583 -0.170746 0.523443 0.414178 -0.042236 0.909215 130 130 130 1.000000
0.523307 0.469045 -0.187656 0.940119 -0.006203 -0.340790 130 130 130 1.000000
-0.252660 0.700633 0.211837 0.252020 0.967108 0.034456 130 130 130 1.000000
-0.520845 0.290268 0.257671 -0.896594 -0.016271 0.442554 130 130 130 1.000000
-0.447418 0.295130 -0.358556 -0.767254 -0.015993 -0.641144 130 130 130 1.000000
0.135581 0.239120 0.413557 0.338662 -0.004008 0.940900 255 255 255 1.000000
-0.276753 0.660124 0.021113 0.000000 -0.666121 0.745843 130 130 130 1.000000
0.110496 0.612497 -0.409603 0.280738 -0.005461 -0.959769 255 255 255 1.000000
0.269846 0.754596 0.335859 -0.646953 0.070713 -0.759244 130 130 130 1.000000
0.381126 0.537082 -0.178067 -0.905197 0.005165 0.424960 130 130 130 1.000000
0.055630 -0.779196 0.570715 0.116995 -0.076443 0.990186 130 130 130 1.000000
-0.541432 -0.839353 -0.151917 0.429248 0.893590 0.131315 255 255 255 1.000000
0.412627 -0.656275 -0.083662 0.978305 -0.000523 -0.207167 255 255 255 1.000000
0.120561 -0.842534 -0.213070 0.000000 -1.000000 -0.000000 255 255 255 1.000000
0.348182 0.196458 -0.235783 0.829549 -0.003842 -0.558421 255 255 255 1.000000
-0.564129 -0.122491 0.137640 0.972080 0.039522 -0.231299 255 255 255 1.000000
-0.039911 0.778322 -0.343482 0.000000 -0.965926 -0.258819 130 130 130 1.000000
-0.121224 -0.730482 0.425059 -0.254220 -0.000234 0.967146 255 255 255 1.000000
0.409755 -0.681773 0.108638 0.971558 -0.000424 0.236800 255 255 255 1.000000
0.507533 -0.842534 0.140805 0.292761 -0.953156 0.076061 130 130 130 1.000000
-0.263542 0.231408 0.515390 -0.443987 -0.019587 0.895819 130 130 130 1.000000
0.136239 -0.740279 0.413320 -0.340183 0.000196 -0.940359 130 130 130 1.000000
-0.390795 -0.842534 0.309530 0.595650 0.492806 -0.634305 255 255 255 1.000000
0.087924 -0.268854 0.565891 -0.173978 0.047761 -0.983591 255 255 255 1.000000
-0.046681 0.108662 0.573650 0.062563 0.026491 -0.997689 255 255 255 1.000000
0.301233 0.233009 -0.468946 0.549254 -0.019496 -0.835428 130 130 130 1.000000
0.164887 0.782334 0.412589 -0.049039 0.992651 -0.110627 130 130 130 1.000000
0.557056 -0.028507 0.023834 0.998924 -0.034232 0.031285 130 130 130 1.000000
0.483911 0.619785 0.285719 0.870602 0.012752 0.491823 130 130 130 1.000000
-0.514677 0.479720 -0.257647 0.885866 0.005601 0.463908 255 255 255 1.000000
-0.325702 -0.344874 -0.291796 -0.726175 -0.001734 -0.687508 255 255 255 1.000000
0.343104 -0.758636 0.255384 -0.817729 0.000124 -0.575604 130 130 130 1.000000
-0.094240 -0.842534 -0.332965 0.000000 -1.000000 -0.000000 255 255 255 1.000000
0.030371 -0.350432 -0.425031 -0.095731 0.001713 0.995406 130 130 130 1.000000
0.077735 0.393240 0.429982 -0.205077 0.004607 -0.978735 130 130 130 1.000000
-0.028782 -0.773962 -0.426677 0.040852 0.000065 0.999165 130 130 130 1.000000
0.556933 0.180100 -0.015624 -0.999020 0.022478 0.038124 255 255 255 1.000000
0.274723 0.496116 0.331448 -0.659937 0.005008 -0.751304 130 130 130 1.000000
-0.563912 0.267180 0.138612 0.972282 0.017571 -0.233151 255 255 255 1.000000
-0.138192 0.356971 -0.408000 -0.293448 -0.004466 -0.955965 255 255 255 1.000000
-0.173195 -0.359031 -0.395681 -0.374191 -0.001679 -0.927350 255 255 255 1.000000
0.320961 -0.213071 -0.272185 -0.766466 0.002247 0.642281 130 130 130 1.000000
0.210908 0.759104 -0.094894 0.229715 -0.906706 -0.353717 255 255 255 1.000000
-0.410425 -0.741497 -0.161609 -0.922021 -0.000191 -0.387139 255 255 255 1.000000
0.273831 -0.705322 0.332234 0.657879 -0.000332 0.753124 255 255 255 1.000000
-0.413929 -0.435192 -0.394966 0.707557 0.057131 0.704343 255 255 255 1.000000
0.006369 0.362215 -0.562090 -0.030695 0.012219 0.999454 255 255 255 1.000000
-0.002838 -0.842534 -0.420273 0.000000 -1.000000 -0.000000 255 255 255 1.000000
-0.571330 -0.725267 0.102459 -0.982860 -0.073430 0.169101 130 130 130 1.000000
0.371198 -0.078712 0.209735 -0.882557 0.002770 -0.470198 130 130 130 1.000000
-0.035950 -0.108061 0.573987 -0.043673 -0.038710 0.998296 130 130 130 1.000000
-0.199376 0.611609 0.278697 0.000000 -0.965926 -0.258819 130 130 130 1.000000
0.489157 -0.356636 0.276337 0.878587 -0.052695 0.474666 130 130 130 1.000000
-0.543312 0.194754 0.205819 0.935998 0.021651 -0.351340 255 255 255 1.000000
-0.567240 -0.382848 -0.111590 0.976914 0.054182 0.206648 255 255 255 1.000000
0.318064 -0.347567 -0.275471 -0.759935 0.001724 0.649997 130 130 130 1.000000
-0.087906 -0.268794 0.432381 -0.177332 -0.002031 0.984149 255 255 255 1.000000
0.350102 -0.448864 -0.433149 -0.634098 0.057877 0.771084 255 255 255 1.000000
0.448877 0.006326 -0.328373 -0.808385 0.032254 0.587770 255 255 255 1.000000
-0.065219 0.627991 0.217561 0.000000 -0.965926 -0.258819 130 130 130 1.000000
-0.434824 -0.208085 0.095704 0.978346 0.002267 -0.206965 130 130 130 1.000000
-0.577680 -0.462838 -0.040123 -0.994977 -0.058681 -0.081095 130 130 130 1.000000
-0.434963 0.389559 -0.372683 0.745649 0.010679 0.666253 255 255 255 1.000000
-0.265271 -0.276828 -0.502379 0.446612 0.048216 0.893428 255 255 255 1.000000
-0.484546 -0.130784 -0.308543 0.832237 0.039991 0.552976 255 255 255 1.000000
0.329767 -0.262472 0.273243 -0.787030 0.002056 -0.616912 130 130 130 1.000000
-0.254926 0.004957 0.519780 -0.428573 -0.032334 0.902928 130 130 130 1.000000
-0.425502 -0.842534 -0.288895 -0.336647 -0.898436 -0.281924 130 130 130 1.000000
0.317229 0.014424 0.288548 -0.758034 0.003133 -0.652208 130 130 130 1.000000
-0.151083 0.789052 -0.197795 -0.145034 -0.875739 -0.460486 255 255 255 1.000000
0.396606 0.470397 -0.140042 0.941364 -0.004908 -0.337358 255 255 255 1.000000
0.153597 -0.604551 -0.394565 -0.380199 0.000724 0.924904 130 130 130 1.000000
-0.025273 0.677357 0.123842 0.014230 0.991224 0.131426 130 130 130 1.000000
-0.515048 0.605227 -0.256920 -0.886536 0.005881 -0.462621 130 130 130 1.000000
-0.538590 -0.525888 0.218345 -0.925903 -0.062212 0.372603 130 130 130 1.000000
-0.549967 0.476119 -0.175207 0.947795 0.005803 0.318828 255 255 255 1.000000
-0.508467 0.345228 0.281698 -0.874593 -0.013171 0.484678 130 130 130 1.000000
-0.062100 -0.693035 -0.424128 0.117751 0.000380 0.993043 130 130 130 1.000000
-0.062179 0.645776 -0.424121 -0.117932 -0.005589 -0.993006 255 255 255 1.000000
0.002120 0.625841 -0.426818 0.030498 -0.005513 -0.999520 255 255 255 1.000000
0.332075 -0.842534 -0.193356 0.000000 1.000000 0.000000 130 130 130 1.000000
0.372921 0.724235 0.197816 -0.892058 0.004100 -0.451902 255 255 255 1.000000
-0.098267 -0.784390 0.567766 0.152914 0.076755 -0.985254 255 255 255 1.000000
-0.517191 0.782334 -0.129068 0.090056 -0.995646 0.024046 255 255 255 1.000000
-0.238045 0.718932 0.041279 -0.234384 -0.948535 -0.212943 255 255 255 1.000000
0.353607 -0.179657 -0.227800 0.841788 -0.002377 -0.539804 255 255 255 1.000000
-0.186057 0.091248 0.547158 -0.307557 -0.027472 0.951133 130 130 130 1.000000
-0.100626 -0.460816 -0.417693 -0.206728 -0.001284 -0.978398 255 255 255 1.000000
-0.398182 0.745973 -0.410452 0.678968 -0.072298 0.730600 255 255 255 1.000000
-0.429659 0.660476 0.390829 -0.735820 0.031969 0.676422 130 130 130 1.000000
0.114368 -0.743499 0.560472 0.220102 -0.074460 0.972631 130 130 130 1.000000
-0.560631 -0.195507 0.151951 0.965605 0.043627 -0.256327 255 255 255 1.000000
0.289446 0.078935 -0.476587 0.528361 -0.028171 -0.848552 130 130 130 1.000000
-0.561633 -0.369651 0.148505 0.966740 0.053419 -0.250119 255 255 255 1.000000
0.002296 0.671453 0.310087 -0.013969 0.997601 -0.067800 130 130 130 1.000000
-0.277186 0.710172 0.166317 0.277432 0.957234 0.082068 130 130 130 1.000000
0.139798 -0.842534 0.266205 0.000000 -1.000000 -0.000000 255 255 255 1.000000
-0.177717 0.658984 0.101891 0.000000 -0.965926 -0.258819 130 130 130 1.000000
-0.320762 0.705490 -0.071671 0.000000 0.965926 0.258819 255 255 255 1.000000
-0.189109 -0.643568 0.546113 -0.312322 -0.068822 0.947480 130 130 130 1.000000
0.433009 -0.490355 0.360959 0.779800 -0.060228 0.623124 130 130 130 1.000000
-0.344859 -0.284132 -0.454370 0.586221 0.048607 0.808692 255 255 255 1.000000
0.068316 0.623646 -0.419842 -0.183276 0.005503 0.983046 130 130 130 1.000000
-0.162394 -0.542671 -0.399759 0.349344 0.000965 0.936994 130 130 130 1.000000
0.088264 -0.369327 0.427628 0.229393 -0.001640 0.973332 255 255 255 1.000000
-0.405083 0.733227 0.186084 0.909540 0.005930 -0.415575 130 130 130 1.000000
-0.517549 0.671618 -0.252010 0.890396 -0.037239 0.453660 255 255 255 1.000000
-0.103628 -0.454705 -0.554787 0.162540 0.058227 0.984982 255 255 255 1.000000
0.011130 0.675908 0.414220 0.004711 -0.987022 -0.160513 255 255 255 1.000000
-0.231092 0.782334 0.447518 -0.018733 -0.999739 0.013052 255 255 255 1.000000
0.555485 0.625487 0.052430 0.996552 0.015447 0.081524 130 130 130 1.000000
0.471848 0.454984 0.306117 0.849385 -0.006993 0.527727 130 130 130 1.000000
0.273024 0.404276 -0.320816 -0.655999 0.004651 0.754747 130 130 130 1.000000
0.540945 -0.497770 0.142142 0.969148 -0.060637 0.238904 130 130 130 1.000000
-0.313989 -0.233273 -0.303509 0.699359 0.002169 0.714767 130 130 130 1.000000
0.551171 0.422938 0.089713 0.989075 -0.008799 0.147153 130 130 130 1.000000
0.087900 -0.842534 -0.115038 0.000000 -1.000000 -0.000000 255 255 255 1.000000
0.086028 -0.455157 -0.554062 0.170559 -0.058248 -0.983624 130 130 130 1.000000
0.226320 0.610173 -0.510562 -0.417541 -0.008214 0.908621 255 255 255 1.000000
-0.556393 0.535017 -0.154411 -0.959319 -0.002488 -0.282313 130 130 130 1.000000
0.413493 0.351970 -0.079787 -0.980153 0.004446 0.198191 130 130 130 1.000000
-0.213207 -0.762497 0.537437 -0.354499 -0.075514 0.932002 130 130 130 1.000000
-0.440517 -0.696006 -0.051104 0.991255 0.000368 0.131963 130 130 130 1.000000
0.211312 -0.411916 -0.365560 0.513520 -0.001474 -0.858076 255 255 255 1.000000
-0.526230 -0.344882 -0.234778 -0.904659 -0.052027 -0.422948 130 130 130 1.000000
0.384725 0.416380 0.181879 -0.913890 0.004698 -0.405936 130 130 130 1.000000
0.432932 0.782334 0.154460 0.032233 -0.999128 -0.026550 255 255 255 1.000000
0.326563 -0.759997 -0.265244 -0.779530 0.000119 0.626365 130 130 130 1.000000
0.351796 -0.159623 0.242594 0.837751 -0.002455 0.546048 255 255 255 1.000000
0.319055 0.144684 -0.456834 -0.580477 0.024468 0.813909 255 255 255 1.000000
0.112506 -0.119887 0.421149 0.285376 -0.002611 0.958412 255 255 255 1.000000
0.405204 0.354799 0.393411 0.732035 -0.012632 0.681150 130 130 130 1.000000
0.246995 0.861326 -0.281367 0.090192 -0.928318 -0.360681 255 255 255 1.000000
0.075701 -0.172117 0.430437 -0.200367 0.002407 -0.979718 130 130 130 1.000000
0.422021 0.560390 0.012042 0.999891 -0.005258 0.013799 255 255 255 1.000000
0.240909 0.701805 -0.057919 0.000000 -0.965926 -0.258819 130 130 130 1.000000
0.471905 -0.510534 -0.293891 0.847920 -0.061354 -0.526561 130 130 130 1.000000
-0.191731 0.621211 0.242862 0.000000 0.965926 0.258819 255 255 255 1.000000
-0.351310 -0.205439 -0.261932 0.785553 0.002278 0.618790 130 130 130 1.000000
0.488460 -0.220271 -0.265574 0.877631 -0.045017 -0.477219 130 130 130 1.000000
0.422201 -0.362395 0.005800 0.999998 -0.001666 -0.000610 255 255 255 1.000000
-0.169614 0.767727 -0.539806 -0.277932 0.082562 -0.957046 130 130 130 1.000000
0.061113 -0.558320 -0.558008 0.126709 -0.064027 -0.989871 130 130 130 1.000000
0.112228 0.688367 0.100845 -0.125409 0.980212 0.153154 130 130 130 1.000000
-0.065149 0.590893 0.576779 0.062484 -0.741887 -0.667607 255 255 255 1.000000
0.285351 -0.368342 -0.309949 -0.684157 0.001643 0.729333 130 130 130 1.000000
-0.036052 0.199534 -0.561855 0.043887 0.021382 0.998808 255 255 255 1.000000
-0.437108 -0.842534 0.245974 -0.412182 -0.849563 0.329164 130 130 130 1.000000
-0.195021 -0.049645 -0.386236 0.424510 0.002883 0.905419 130 130 130 1.000000
0.190272 -0.420235 0.389528 0.464911 -0.001441 0.885356 255 255 255 1.000000
0.250014 -0.477718 -0.498853 -0.458498 0.059522 0.886700 255 255 255 1.000000
0.268647 0.161478 0.336805 -0.645775 0.003705 -0.763519 130 130 130 1.000000
0.551415 -0.026426 0.088175 0.988934 -0.034112 0.144383 130 130 130 1.000000
-0.565791 -0.628887 0.130202 0.973599 0.068022 -0.217895 255 255 255 1.000000
-0.433122 0.578486 0.103318 0.974448 0.005329 -0.224551 130 130 130 1.000000
-0.457940 0.782334 0.163368 -0.079576 0.996435 0.028013 130 130 130 1.000000
-0.140341 -0.752269 -0.407376 -0.298384 -0.000149 -0.954446 255 255 255 1.000000
0.471311 0.438160 -0.294895 0.848399 -0.007940 -0.529297 130 130 130 1.000000
0.412707 0.525104 0.095432 -0.978468 0.005121 -0.206333 130 130 130 1.000000
-0.357898 0.793577 -0.075664 0.337677 0.881302 0.330576 130 130 130 1.000000
0.080108 0.306408 -0.555000 -0.160439 0.015363 0.986926 255 255 255 1.000000
-0.272588 -0.787451 0.510781 -0.458667 -0.076925 0.885272 130 130 130 1.000000
-0.109615 0.379030 -0.553839 -0.173317 -0.011270 -0.984802 130 130 130 1.000000
-0.153235 0.354393 0.415186 0.328194 0.004456 -0.944600 130 130 130 1.000000
0.158860 0.330989 0.548616 -0.298915 0.013975 -0.954177 255 255 255 1.000000
-0.577262 -0.656565 -0.044542 0.993616 0.069576 0.088803 255 255 255 1.000000
0.140833 0.297933 -0.399536 -0.350759 0.004236 0.936456 130 130 130 1.000000
0.161334 -0.842534 -0.003727 0.000000 1.000000 0.000000 130 130 130 1.000000
-0.391117 0.554541 0.214167 0.877093 0.005233 -0.480293 130 130 130 1.000000
0.190955 -0.490634 0.537464 -0.354715 0.060240 -0.933032 255 255 255 1.000000
-0.206764 0.248469 -0.380296 0.451813 0.004044 0.892104 130 130 130 1.000000
-0.143432 0.271497 0.418607 0.305462 0.004132 -0.952195 130 130 130 1.000000
-0.084021 0.618781 0.251931 0.000000 -0.965926 -0.258819 130 130 130 1.000000
0.147209 0.258593 -0.397241 -0.365361 0.004082 0.930857 130 130 130 1.000000
-0.325095 0.243142 0.479931 0.552292 0.018926 -0.833436 255 255 255 1.000000
0.501686 0.473188 0.251747 0.901821 -0.005968 0.432068 130 130 130 1.000000
0.509946 0.350249 -0.221158 0.916558 -0.012893 -0.399695 130 130 130 1.000000
-0.377424 -0.029504 -0.225280 0.845511 0.002961 0.533950 130 130 130 1.000000
0.041916 0.782034 -0.427425 -0.041085 0.943297 0.329396 130 130 130 1.000000
0.181255 0.636477 -0.381993 0.444091 -0.005554 -0.895964 255 255 255 1.000000
0.467503 0.221464 0.313117 -0.841505 0.020141 -0.539874 255 255 255 1.000000
-0.126156 0.486862 0.562795 -0.202394 -0.005199 0.979290 130 130 130 1.000000
0.466379 0.190578 -0.302641 0.839575 -0.021883 -0.542803 130 130 130 1.000000
-0.313928 -0.053806 0.487353 0.532236 0.035644 -0.845845 255 255 255 1.000000
0.080190 -0.391518 0.567116 0.160366 -0.054673 0.985542 130 130 130 1.000000
-0.086533 0.202127 0.569624 0.132640 0.021232 -0.990937 255 255 255 1.000000
0.424307 -0.842534 0.052922 -0.544683 -0.827611 -0.135576 255 255 255 1.000000
0.521184 -0.024521 0.205681 0.935768 -0.034004 0.350972 130 130 130 1.000000
0.103994 0.636976 -0.550662 0.202403 0.020872 -0.979080 130 130 130 1.000000
0.285995 -0.842534 -0.286973 0.000000 1.000000 0.000000 130 130 130 1.000000
-0.577133 0.159814 0.058038 0.995536 0.023622 -0.091376 255 255 255 1.000000
0.139663 0.671216 0.056242 0.000000 0.965926 0.258819 255 255 255 1.000000
-0.435394 0.530257 -0.081026 0.979565 0.005140 0.201060 130 130 130 1.000000
0.362714 0.763592 -0.213030 -0.852074 0.154289 0.500165 130 130 130 1.000000
-0.301102 -0.659634 -0.482809 0.508973 0.069750 0.857952 255 255 255 1.000000
-0.176536 -0.029485 0.406365 0.381967 0.002962 -0.924171 130 130 130 1.000000
-0.437500 0.352643 -0.070153 0.984389 0.004449 0.175952 130 130 130 1.000000
-0.497789 0.076046 0.299754 -0.855827 -0.028340 0.516485 130 130 130 1.000000
-0.522915 -0.802522 -0.241479 -0.897512 -0.077756 -0.434081 130 130 130 1.000000
-0.347623 -0.842534 -0.408234 0.203365 0.945032 0.256042 255 255 255 1.000000
0.465933 0.782334 0.002267 -0.084944 -0.996385 0.000676 255 255 255 1.000000
0.041158 0.670654 0.256226 -0.054200 0.998477 -0.010287 130 130 130 1.000000
0.547212 0.765430 0.114103 -0.978525 -0.081448 -0.189356 255 255 255 1.000000
-0.332119 -0.797094 -0.463028 -0.563072 -0.077468 -0.822769 130 130 130 1.000000
-0.442350 -0.426376 -0.033648 0.995786 0.001418 0.091697 130 130 130 1.000000
-0.083051 0.342780 -0.558046 0.126530 0.013308 0.991873 255 255 255 1.000000
0.490860 0.570538 -0.260865 -0.882919 0.000489 0.469525 255 255 255 1.000000
0.333935 -0.842534 -0.399267 0.211875 -0.943141 -0.256113 130 130 130 1.000000
0.148107 0.741108 -0.082429 0.162819 -0.926227 -0.339991 255 255 255 1.000000
0.516554 -0.426598 -0.205887 -0.926446 0.056628 0.372145 255 255 255 1.000000
0.407272 0.776728 -0.376154 -0.628944 -0.525807 0.572675 255 255 255 1.000000
0.369958 -0.604936 -0.200039 0.879578 -0.000722 -0.475754 255 255 255 1.000000
0.394615 -0.000150 -0.145574 0.936704 -0.003076 -0.350108 255 255 255 1.000000
-0.438001 0.079329 -0.066987 -0.985668 -0.003386 -0.168663 255 255 255 1.000000
-0.037734 0.342232 0.438526 -0.061495 -0.004407 0.998098 255 255 255 1.000000
-0.128644 -0.842534 -0.022202 0.000000 -1.000000 -0.000000 255 255 255 1.000000
0.216752 -0.237821 -0.362343 0.525985 -0.002151 -0.850491 255 255 255 1.000000
0.096658 -0.842534 -0.053802 0.000000 1.000000 0.000000 130 130 130 1.000000
0.533499 -0.244822 0.169004 0.956997 -0.046414 0.286362 130 130 130 1.000000
-0.250037 -0.496015 0.522025 0.419469 0.060533 -0.905749 255 255 255 1.000000
-0.340689 0.116277 -0.457204 0.579510 0.026069 0.814548 255 255 255 1.000000
-0.300665 -0.842534 0.412002 -0.362186 -0.736958 0.570713 130 130 130 1.000000
-0.448821 0.782052 0.353010 0.159358 -0.978741 -0.129119 255 255 255 1.000000
0.456538 -0.638969 -0.317123 0.820720 -0.068587 -0.567200 130 130 130 1.000000
-0.432223 0.163225 -0.375791 -0.740616 -0.023427 -0.671520 130 130 130 1.000000
-0.423677 -0.583017 -0.385218 0.724040 0.065421 0.686648 255 255 255 1.000000
0.010318 -0.082821 -0.426561 0.049421 -0.002754 -0.998774 255 255 255 1.000000
0.040658 -0.050339 0.436188 -0.119444 0.002880 -0.992837 130 130 130 1.000000
-0.284811 0.693932 -0.028534 0.000000 0.965926 0.258819 255 255 255 1.000000
0.126622 0.454023 0.557733 -0.242204 0.007047 -0.970200 255 255 255 1.000000
0.485049 0.156680 0.283795 0.872348 -0.023792 0.488307 130 130 130 1.000000
-0.579615 -0.415162 0.000403 -0.998382 -0.055991 -0.009934 130 130 130 1.000000
0.497235 0.325501 0.260483 -0.894165 0.014287 -0.447510 255 255 255 1.000000
-0.559451 0.567774 0.156014 0.964587 0.000644 -0.263764 255 255 255 1.000000
0.134887 -0.144413 -0.543452 -0.256515 0.040750 0.965681 255 255 255 1.000000
-0.526706 -0.840894 0.198552 0.311741 0.942955 -0.116851 255 255 255 1.000000
-0.379811 0.782334 0.399441 -0.042708 0.997543 0.055531 130 130 130 1.000000
0.286030 -0.214525 0.321420 -0.685747 0.002241 -0.727836 130 130 130 1.000000
-0.343998 -0.842534 -0.115994 0.000000 -1.000000 -0.000000 255 255 255 1.000000
-0.388169 -0.114420 0.219241 0.870516 0.002631 -0.492133 130 130 130 1.000000
0.065596 -0.842534 0.008155 0.000000 -1.000000 -0.000000 255 255 255 1.000000
-0.048771 -0.673585 -0.561330 -0.066112 -0.070506 -0.995318 130 130 130 1.000000
-0.015232 -0.225383 0.574638 -0.007269 -0.045308 0.998947 130 130 130 1.000000
0.391576 -0.716572 -0.395142 0.706505 -0.072948 -0.703939 130 130 130 1.000000
0.548576 -0.688402 0.106099 0.981889 -0.071352 0.175506 130 130 130 1.000000
0.111561 0.725129 -0.052516 0.123405 -0.943138 -0.308646 255 255 255 1.000000
0.399006 0.426883 -0.133375 0.946757 -0.004738 -0.321914 255 255 255 1.000000
0.396217 0.693236 -0.390501 0.715658 0.047445 -0.696837 130 130 130 1.000000
0.051729 0.486951 0.434598 -0.145036 0.004972 -0.989414 130 130 130 1.000000
-0.538550 -0.466949 0.218436 0.926024 0.058898 -0.372841 255 255 255 1.000000
-0.498271 0.734259 0.298938 0.855131 -0.066801 -0.514089 255 255 255 1.000000
0.406740 -0.491623 -0.379540 0.733553 -0.060290 -0.676953 130 130 130 1.000000
-0.222018 0.587208 0.384474 -0.486872 -0.005361 0.873457 255 255 255 1.000000
-0.366994 -0.482029 -0.437249 0.624928 0.059757 0.778392 255 255 255 1.000000
0.036810 -0.260542 -0.424422 -0.110583 0.002063 0.993865 130 130 130 1.000000
-0.229360 -0.247289 -0.518844 -0.383567 -0.046550 -0.922339 130 130 130 1.000000
0.385540 -0.475783 0.179996 -0.915812 0.001225 -0.401605 130 130 130 1.000000
-0.443566 -0.013859 0.032181 0.998177 0.003022 -0.060277 130 130 130 1.000000
-0.322703 -0.723748 -0.294795 -0.719412 -0.000260 -0.694583 255 255 255 1.000000
0.283969 0.369773 0.491955 0.519027 -0.011793 0.854676 130 130 130 1.000000
0.192736 -0.623975 -0.524693 0.357655 -0.067731 -0.931394 130 130 130 1.000000
-0.339484 -0.658037 0.470152 -0.576227 -0.069648 0.814317 130 130 130 1.000000
-0.406849 -0.842021 -0.368343 -0.222866 -0.951776 -0.210837 130 130 130 1.000000
-0.438489 -0.375971 -0.063909 -0.986860 -0.001614 -0.161567 255 255 255 1.000000
-0.572841 0.445249 -0.080788 0.988231 0.007543 0.152780 255 255 255 1.000000
0.211217 0.048051 0.377746 0.513299 -0.003264 0.858204 255 255 255 1.000000
0.147763 -0.473790 0.409171 0.366628 -0.001233 0.930367 255 255 255 1.000000
0.421038 0.083262 -0.024484 -0.997505 0.003400 0.070516 130 130 130 1.000000
-0.105119 0.613743 0.405124 -0.219731 -0.208951 0.952921 130 130 130 1.000000
0.415867 0.020048 -0.066716 0.985775 -0.003155 -0.168039 255 255 255 1.000000
0.031350 0.443383 -0.424938 0.097989 -0.004803 -0.995176 255 255 255 1.000000
0.277756 -0.428277 0.328774 -0.666929 0.001410 -0.745120 130 130 130 1.000000
0.046388 -0.842040 -0.535405 0.032384 -0.951821 -0.304940 130 130 130 1.000000
-0.403789 -0.842534 -0.250640 -0.312089 0.903168 -0.294769 130 130 130 1.000000
0.195251 0.419496 -0.374862 -0.476285 0.004708 0.879278 130 130 130 1.000000
-0.406434 0.778710 0.183900 0.872421 0.291313 -0.392451 130 130 130 1.000000
0.514946 -0.821119 0.219474 0.900508 -0.236037 0.365202 130 130 130 1.000000
-0.568428 -0.205017 -0.106275 -0.979331 -0.044164 -0.197384 130 130 130 1.000000
0.466508 -0.842534 0.067326 -0.272009 0.961662 -0.034891 255 255 255 1.000000
0.275766 0.520340 0.496807 -0.504644 0.003315 -0.863321 255 255 255 1.000000
0.492689 -0.208247 0.269405 0.885369 -0.044354 0.462768 130 130 130 1.000000
-0.412982 0.790957 -0.130714 0.936211 -0.171831 0.306568 255 255 255 1.000000
-0.561854 -0.427350 0.147742 0.966915 0.056663 -0.248727 255 255 255 1.000000
-0.439206 0.147121 0.071513 -0.988509 -0.003650 0.151117 255 255 255 1.000000
0.056476 -0.453161 0.570635 0.118611 -0.058124 0.991238 130 130 130 1.000000
0.198828 0.223562 -0.522459 -0.369055 0.020021 0.929192 255 255 255 1.000000
0.453807 0.150767 -0.321141 0.817529 -0.024128 -0.575382 130 130 130 1.000000
0.474815 -0.386585 -0.288972 0.853525 -0.054392 -0.518205 130 130 130 1.000000
-0.342454 0.334845 -0.272962 0.764924 0.004379 0.644105 130 130 130 1.000000
0.386778 -0.842534 -0.236194 -0.273633 -0.926875 0.256957 255 255 255 1.000000
-0.571435 0.126275 -0.089668 -0.985400 -0.025509 -0.168332 130 130 130 1.000000
-0.416976 0.320666 0.157192 0.937138 0.004325 -0.348931 130 130 130 1.000000
0.422552 -0.346836 0.373734 -0.761688 0.052149 -0.645842 255 255 255 1.000000
-0.146660 0.641580 -0.546082 0.238380 -0.023044 0.970899 255 255 255 1.000000
0.536403 0.142228 0.159010 -0.962828 0.024611 -0.268992 255 255 255 1.000000
0.292770 -0.265324 -0.474621 0.533722 -0.047549 -0.844322 130 130 130 1.000000
0.277927 -0.642552 0.328623 -0.667321 0.000576 -0.744770 130 130 130 1.000000
0.164906 0.307644 0.401801 -0.406351 0.004274 -0.913707 130 130 130 1.000000
-0.021596 -0.842534 0.208674 0.000000 -1.000000 -0.000000 255 255 255 1.000000
-0.167620 -0.842534 -0.091796 0.000000 -1.000000 -0.000000 255 255 255 1.000000
0.202821 -0.842534 -0.383821 -0.017651 -0.999140 0.037510 255 255 255 1.000000
-0.364528 -0.062401 -0.244364 0.815938 0.002834 0.578132 130 130 130 1.000000
-0.037225 -0.842534 -0.295517 0.000000 1.000000 0.000000 130 130 130 1.000000
0.422097 -0.550631 0.002507 0.999966 -0.000934 -0.008211 255 255 255 1.000000
0.126974 0.032973 0.416656 -0.318717 0.003205 -0.947845 130 130 130 1.000000
0.536608 -0.394597 0.158305 0.962011 -0.054843 0.267446 130 130 130 1.000000
-0.207703 0.782334 -0.413149 0.038041 0.996612 0.072918 130 130 130 1.000000
0.336870 -0.707232 0.264085 0.803256 -0.000324 0.595634 255 255 255 1.000000
-0.436836 0.190226 -0.074347 -0.982620 -0.003816 -0.185590 255 255 255 1.000000
-0.093017 -0.251084 -0.556468 0.143997 0.046765 0.988473 255 255 255 1.000000
-0.416057 -0.350975 0.159746 0.934940 0.001711 -0.354801 130 130 130 1.000000
-0.266811 0.692889 0.000143 0.000000 0.956122 -0.292967 130 130 130 1.000000
0.450142 -0.099343 0.338664 -0.810517 0.038208 -0.584467 255 255 255 1.000000
0.372847 -0.842534 0.058765 0.000000 -1.000000 -0.000000 255 255 255 1.000000
0.381536 -0.400776 -0.177120 0.906218 -0.001517 -0.422808 255 255 255 1.000000
0.421915 -0.842534 -0.041041 0.023293 0.999585 -0.016923 130 130 130 1.000000
0.103490 -0.483505 -0.411638 0.264535 -0.001195 -0.964375 255 255 255 1.000000
-0.008602 0.782334 -0.487855 -0.000746 0.999738 0.022884 130 130 130 1.000000
-0.203791 0.644416 0.376687 -0.449296 -0.159460 0.879037 130 130 130 1.000000
0.476389 -0.297234 -0.286309 -0.856557 0.049366 0.513685 255 255 255 1.000000
-0.029072 0.715423 -0.046676 0.016111 0.954441 0.297964 130 130 130 1.000000
0.328565 -0.842534 0.268412 0.000000 -1.000000 -0.000000 255 255 255 1.000000
0.420371 0.232195 -0.031548 0.996214 -0.003981 -0.086846 255 255 255 1.000000
0.275886 -0.471587 0.330423 -0.662628 0.001242 -0.748948 130 130 130 1.000000
0.255043 -0.560154 0.508420 0.467146 -0.064151 0.881850 130 130 130 1.000000
0.146581 -0.531032 0.552184 -0.276857 0.062521 -0.958875 255 255 255 1.000000
-0.577754 -0.586692 -0.039334 -0.994657 -0.065644 -0.079679 130 130 130 1.000000
0.167466 0.799770 -0.379395 -0.417401 -0.249359 0.873840 255 255 255 1.000000
0.365624 -0.036418 -0.207733 -0.869694 0.002935 0.493582 130 130 130 1.000000
-0.450853 0.726550 0.366545 0.771841 -0.063146 -0.632672 255 255 255 1.000000
0.556575 -0.767013 0.039168 -0.995435 0.075753 -0.058049 255 255 255 1.000000
-0.295423 0.537690 -0.486168 0.500190 0.002338 0.865913 255 255 255 1.000000
0.531358 -0.085986 -0.164243 -0.953417 0.037461 0.299321 255 255 255 1.000000
-0.032633 0.783288 -0.208000 0.022194 0.882331 0.470106 130 130 130 1.000000
0.227931 0.301574 -0.509865 0.420323 -0.015630 -0.907240 130 130 130 1.000000
-0.287354 -0.842534 -0.110872 0.000000 -1.000000 -0.000000 255 255 255 1.000000
-0.317806 0.688274 -0.472755 0.538838 -0.045089 0.841202 255 255 255 1.000000
0.226281 0.220857 0.522709 -0.417424 0.020177 -0.908488 255 255 255 1.000000
-0.438219 -0.454729 -0.065616 -0.986208 -0.001307 -0.165505 255 255 255 1.000000
0.451534 0.297083 -0.324485 0.813547 -0.015884 -0.581282 130 130 130 1.000000
0.347435 -0.086187 -0.236882 -0.827835 0.002742 0.560965 130 130 130 1.000000
-0.373955 0.218461 -0.431811 0.637942 0.020308 0.769816 255 255 255 1.000000
0.521680 -0.640076 0.204303 -0.935009 0.068647 -0.347917 255 255 255 1.000000
-0.442858 -0.256055 -0.028270 0.996851 0.002080 0.079270 130 130 130 1.000000
-0.028847 -0.422023 -0.562081 -0.031163 -0.056390 -0.997922 130 130 130 1.000000
-0.181289 -0.842534 0.362148 0.000000 1.000000 0.000000 130 130 130 1.000000
0.121720 0.713793 0.418472 0.306525 -0.005853 0.951845 255 255 255 1.000000
0.239210 0.782334 -0.434482 -0.005523 0.999939 -0.009587 130 130 130 1.000000
0.553894 0.744407 0.069265 0.991255 0.071574 0.110860 130 130 130 1.000000
-0.434475 0.402013 0.385366 -0.744773 -0.009977 0.667243 130 130 130 1.000000
0.271930 -0.365071 0.499075 -0.497190 0.053181 -0.866010 255 255 255 1.000000
-0.106565 0.135765 0.566451 0.167884 0.024975 -0.985490 255 255 255 1.000000
0.193546 -0.386005 0.536531 -0.359363 0.054349 -0.931614 255 255 255 1.000000
0.250403 -0.109404 -0.498655 0.459641 -0.038788 -0.887257 130 130 130 1.000000
-0.411327 -0.191084 0.171656 0.924034 0.002333 -0.382302 130 130 130 1.000000
0.412897 -0.192328 0.094580 -0.978892 0.002328 -0.204364 130 130 130 1.000000
0.362859 -0.185699 0.434170 -0.657224 0.043086 -0.752463 255 255 255 1.000000
0.233936 -0.333450 0.519175 -0.430342 0.051388 -0.901202 255 255 255 1.000000
-0.002435 -0.641294 -0.562367 -0.015181 0.068710 0.997521 255 255 255 1.000000
-0.486458 -0.433106 0.317860 0.834803 0.057006 -0.547589 255 255 255 1.000000
0.116594 0.682465 0.384890 -0.049562 0.992238 0.114053 130 130 130 1.000000
-0.261435 0.852136 -0.262776 -0.170887 -0.881473 -0.440230 255 255 255 1.000000
-0.144783 0.782334 -0.517080 0.014753 -0.997755 0.065328 255 255 255 1.000000
0.033397 -0.472403 -0.560687 0.078103 -0.059217 -0.995185 130 130 130 1.000000
-0.177483 0.761881 0.406141 -0.380651 -0.138413 0.914301 255 255 255 1.000000
0.253768 0.204427 0.348721 -0.611554 0.003873 -0.791194 130 130 130 1.000000
-0.392551 0.782334 -0.274774 -0.051658 -0.998513 -0.017425 255 255 255 1.000000
0.497260 0.498632 -0.248304 -0.894284 0.004537 0.447476 255 255 255 1.000000
0.261848 0.708895 0.231365 0.270003 -0.962458 -0.027783 255 255 255 1.000000
0.284000 0.700877 -0.479807 -0.518447 -0.051052 0.853584 255 255 255 1.000000
0.365401 -0.030875 0.431930 0.661918 -0.034365 0.748788 130 130 130 1.000000
0.503491 -0.842534 -0.147089 -0.290427 0.952985 0.086440 255 255 255 1.000000
0.548020 0.307111 -0.097480 0.983165 -0.015318 -0.182075 130 130 130 1.000000
-0.143748 0.707838 -0.080434 0.000000 -0.965926 -0.258819 130 130 130 1.000000
-0.049149 -0.494540 0.437482 -0.087880 -0.001152 0.996130 255 255 255 1.000000
0.120453 -0.326322 0.559112 0.231111 -0.050999 0.971590 130 130 130 1.000000
-0.087433 0.672215 0.247352 -0.079170 -0.996861 0.000993 255 255 255 1.000000
-0.421214 -0.703558 -0.133293 0.946833 0.000339 0.321727 130 130 130 1.000000
0.457605 0.343281 0.327682 -0.824478 0.013286 -0.565738 255 255 255 1.000000
-0.171103 -0.252862 0.551503 -0.281155 -0.046868 0.958517 130 130 130 1.000000
0.372713 0.781391 0.415663 -0.254880 -0.927828 -0.272344 255 255 255 1.000000
0.317806 -0.156067 0.287893 0.759347 -0.002470 0.650681 255 255 255 1.000000
0.162343 -0.229084 0.547604 -0.304687 0.045513 -0.951364 255 255 255 1.000000
0.035650 0.188506 -0.424532 0.107909 -0.003811 -0.994153 255 255 255 1.000000
-0.293530 -0.842534 0.287264 0.000000 -1.000000 -0.000000 255 255 255 1.000000
0.283454 -0.016032 0.323750 -0.679889 0.003014 -0.733308 130 130 130 1.000000
-0.085326 -0.782131 0.432790 0.171395 0.000033 -0.985202 130 130 130 1.000000
0.237627 -0.026845 0.360667 -0.574226 0.002972 -0.818692 130 130 130 1.000000
0.265414 -0.230629 0.502929 -0.485773 0.045601 -0.872895 255 255 255 1.000000
0.193023 0.721810 0.007381 -0.209832 0.945756 0.248026 130 130 130 1.000000
0.408924 -0.434655 0.389192 -0.737590 0.057092 -0.672831 255 255 255 1.000000
0.405579 -0.202762 0.392987 0.732063 -0.044032 0.679812 130 130 130 1.000000
-0.411943 0.663131 0.086416 0.000000 -0.965926 -0.258819 130 130 130 1.000000
0.442129 -0.166254 -0.337072 -0.796584 0.041988 0.603068 255 255 255 1.000000
0.422084 0.676343 0.010064 0.999941 -0.005708 0.009233 255 255 255 1.000000
-0.302590 0.530557 0.494059 -0.512820 -0.002740 0.858492 130 130 130 1.000000
-0.543937 -0.598957 -0.191953 0.935298 0.066337 0.347588 255 255 255 1.000000
0.053511 -0.566908 0.434316 -0.149157 0.000871 -0.988813 130 130 130 1.000000
0.428797 -0.842534 -0.268705 -0.249035 0.955920 0.155557 255 255 255 1.000000
0.262065 -0.045199 0.504842 -0.480035 0.035157 -0.876545 255 255 255 1.000000
0.421429 -0.194727 0.030909 0.998352 -0.002319 0.057346 255 255 255 1.000000
-0.149989 -0.842534 0.280142 0.000000 -1.000000 -0.000000 255 255 255 1.000000
-0.316925 0.805288 -0.141201 0.309680 0.863155 0.398826 130 130 130 1.000000
-0.171018 0.002120 -0.539398 0.281247 0.032506 0.959085 255 255 255 1.000000
0.205798 -0.127683 0.531572 -0.381222 0.039813 -0.923626 255 255 255 1.000000
-0.048923 0.782334 0.476588 0.006549 0.997871 -0.064888 130 130 130 1.000000
-0.441707 0.431392 -0.040443 0.994207 0.004756 0.107377 130 130 130 1.000000
0.058591 0.782334 -0.502658 -0.000327 -0.999881 0.015439 255 255 255 1.000000
-0.481171 -0.056351 0.325638 -0.826439 -0.035800 0.561887 130 130 130 1.000000
-0.010817 -0.842534 -0.459069 0.000000 -0.978512 0.206192 255 255 255 1.000000
-0.421622 0.212663 0.144289 0.947716 0.003904 -0.319091 130 130 130 1.000000
0.417805 -0.763995 -0.054476 0.990184 -0.000104 -0.139769 255 255 255 1.000000
0.421269 -0.022755 -0.022043 -0.997889 0.002987 0.064873 130 130 130 1.000000
0.381129 0.565542 0.190190 0.905204 -0.005276 0.424945 255 255 255 1.000000
-0.575977 0.663208 -0.058134 0.993056 -0.033261 0.112842 255 255 255 1.000000
-0.092632 0.299096 -0.419480 0.188194 0.004239 0.982123 130 130 130 1.000000
0.555278 0.110770 0.054622 0.996002 -0.026384 0.085350 130 130 130 1.000000
0.409971 -0.095663 0.107673 -0.972093 0.002704 -0.234581 130 130 130 1.000000
-0.149578 -0.652558 0.416502 0.319710 0.000537 -0.947515 130 130 130 1.000000
0.357066 -0.464338 0.234333 -0.849889 0.001270 -0.526960 130 130 130 1.000000
-0.428792 0.130264 0.391813 0.734403 0.025280 -0.678243 255 255 255 1.000000
0.501536 0.194154 0.252042 0.901376 -0.021681 0.432495 130 130 130 1.000000
0.298155 -0.240304 -0.297165 -0.714014 0.002142 0.700128 130 130 130 1.000000
-0.298561 0.734538 0.047489 -0.299026 -0.931734 -0.206048 255 255 255 1.000000
-0.313949 0.728445 -0.157339 0.000000 -0.965926 -0.258819 130 130 130 1.000000
-0.542636 -0.086045 -0.195569 -0.934326 -0.037468 -0.354446 130 130 130 1.000000
-0.217658 -0.037037 -0.523705 0.363073 0.034700 0.931114 255 255 255 1.000000
0.049080 0.675715 0.153303 -0.061327 0.993153 0.099428 130 130 130 1.000000
-0.579341 -0.229656 -0.008294 -0.998644 -0.045561 -0.025201 130 130 130 1.000000
-0.546742 0.182421 -0.184162 -0.942098 -0.022348 -0.334592 130 130 130 1.000000
-0.121265 0.101453 -0.412917 0.254315 0.003471 0.967115 130 130 130 1.000000
-0.462611 0.613056 -0.339258 -0.794295 0.009577 -0.607457 130 130 130 1.000000
-0.052636 -0.427244 0.437152 -0.095934 -0.001414 0.995387 255 255 255 1.000000
-0.579478 0.099954 -0.003945 0.999481 0.026992 0.017565 255 255 255 1.000000
-0.443376 0.761074 -0.024504 -0.988916 -0.130892 -0.070083 255 255 255 1.000000
0.240042 0.510334 -0.503934 -0.441751 0.003878 0.897129 255 255 255 1.000000
-0.133890 0.782334 -0.484879 -0.005373 -0.999979 0.003688 255 255 255 1.000000
0.555480 -0.652563 -0.040355 0.994262 -0.069347 -0.081454 130 130 130 1.000000
-0.289850 0.557765 -0.325534 0.643479 0.005247 0.765446 130 130 130 1.000000
-0.188814 -0.497440 -0.534090 -0.311977 -0.060609 -0.948155 130 130 130 1.000000
-0.338989 -0.431795 0.470489 0.575841 0.056931 -0.815577 255 255 255 1.000000
-0.184344 -0.178492 -0.390857 0.400046 0.002382 0.916492 130 130 130 1.000000
0.328115 -0.303059 0.462333 0.595900 -0.049684 0.801520 130 130 130 1.000000
-0.436546 -0.498651 0.088001 0.981955 0.001136 -0.189109 130 130 130 1.000000
0.413123 0.775880 0.382315 -0.667925 -0.453799 -0.589867 255 255 255 1.000000
0.295966 0.744987 -0.219075 0.000000 0.965926 0.258819 255 255 255 1.000000
-0.048775 0.671094 0.198119 -0.038750 -0.997901 -0.051889 255 255 255 1.000000
-0.317178 -0.078305 -0.300320 0.706763 0.002772 0.707445 130 130 130 1.000000
-0.482791 -0.406990 -0.311126 0.828565 0.055543 0.557130 255 255 255 1.000000
0.317179 0.594358 0.470238 0.577406 0.000751 0.816457 130 130 130 1.000000
-0.573864 -0.582395 0.086460 0.987832 0.065402 -0.141108 255 255 255 1.000000
0.382553 0.662386 0.089196 0.000000 -0.965926 -0.258819 130 130 130 1.000000
-0.568601 -0.773391 -0.105502 0.977714 0.076119 0.195655 255 255 255 1.000000
-0.207295 -0.842534 0.431207 -0.098661 0.963416 0.249188 130 130 130 1.000000
0.120715 0.751276 -0.242544 0.000000 0.965926 0.258819 255 255 255 1.000000
-0.445331 -0.842534 -0.029919 0.076381 -0.996550 0.032467 255 255 255 1.000000
-0.563207 0.024439 -0.129634 -0.970628 -0.031242 -0.238546 130 130 130 1.000000
0.202651 -0.382018 -0.520805 0.375388 -0.054125 -0.925286 130 130 130 1.000000
-0.573131 0.140696 0.091087 0.988455 0.024698 -0.149489 255 255 255 1.000000
0.034942 0.142584 0.436729 -0.106277 0.003632 -0.994330 130 130 130 1.000000
-0.577354 -0.396626 -0.043568 0.994677 0.054960 0.087161 255 255 255 1.000000
-0.384161 0.706750 -0.076371 0.000000 -0.965926 -0.258819 130 130 130 1.000000
-0.437414 0.051392 -0.369903 0.749705 0.029730 0.661104 255 255 255 1.000000
-0.391291 -0.534601 -0.416528 -0.667501 -0.062719 -0.741962 130 130 130 1.000000
0.402369 0.784018 0.012088 0.068695 -0.964124 -0.256411 255 255 255 1.000000
-0.124306 -0.356898 -0.412034 -0.261376 -0.001688 -0.965236 255 255 255 1.000000
0.033123 0.772376 0.437198 0.099394 -0.234814 0.966945 255 255 255 1.000000
0.490405 0.733048 0.273887 -0.880170 -0.066220 -0.470016 255 255 255 1.000000
