0.433075 -0.368856 -0.063071 1.000000 0.000000 0.000000
-0.280880 -0.192596 -0.026887 0.000000 0.000000 1.000000
0.475171 -0.115111 -0.064603 1.000000 0.000000 0.000000
-0.198366 -0.260252 -0.030863 1.000000 0.000000 0.000000
-0.214886 0.202249 -0.077158 1.000000 0.000000 0.000000
0.430992 0.837829 -0.006913 1.000000 0.000000 0.000000
-0.049977 0.261573 0.030187 0.000000 0.000000 1.000000
0.433075 0.693440 0.035043 1.000000 0.000000 0.000000
0.475171 -0.358802 -0.010922 1.000000 0.000000 0.000000
0.389596 0.795733 -0.058322 1.000000 0.000000 0.000000
-0.237922 0.204657 -0.026887 0.000000 0.000000 1.000000
-0.362306 -0.369163 -0.026885 0.000000 0.000000 1.000000
0.192800 0.837829 0.051664 1.000000 0.000000 0.000000
-0.010219 0.326741 -0.026885 0.000000 0.000000 1.000000
0.472232 -0.100794 -0.077158 1.000000 0.000000 0.000000
-0.381548 0.518167 0.030429 0.000000 0.000000 1.000000
0.445171 0.106387 -0.077158 1.000000 0.000000 0.000000
-0.395401 0.399703 0.030431 0.000000 0.000000 1.000000
0.475171 0.211125 -0.010355 1.000000 0.000000 0.000000
-0.226021 -0.450989 0.080702 1.000000 0.000000 0.000000
0.177759 -0.585045 0.029735 0.000000 0.000000 1.000000
0.475171 0.317802 0.023153 1.000000 0.000000 0.000000
-0.240462 -0.241320 0.066198 1.000000 0.000000 0.000000
0.472317 0.693836 0.080702 1.000000 0.000000 0.000000
-0.299236 -0.615382 0.030431 0.000000 0.000000 1.000000
-0.209804 0.762018 0.028082 1.000000 0.000000 0.000000
-0.174754 0.403734 -0.026720 0.000000 0.000000 1.000000
0.160523 0.200393 -0.026886 0.000000 0.000000 1.000000
0.198277 -0.543220 -0.000542 0.000000 0.000000 1.000000
0.475171 -0.379742 0.010412 1.000000 0.000000 0.000000
0.084023 -0.830428 0.029430 0.000000 0.000000 1.000000
0.053421 0.738725 0.030093 0.000000 0.000000 1.000000
-0.338766 0.116503 -0.026886 0.000000 0.000000 1.000000
-0.199178 0.732813 -0.024538 1.000000 0.000000 0.000000
0.475171 -0.563401 0.055589 1.000000 0.000000 0.000000
-0.053103 0.519652 -0.026811 0.000000 0.000000 1.000000
-0.198366 0.280751 -0.058197 1.000000 0.000000 0.000000
0.475171 0.349926 -0.037383 1.000000 0.000000 0.000000
0.475171 0.527295 -0.016068 1.000000 0.000000 0.000000
-0.126102 0.318601 -0.026887 0.000000 0.000000 1.000000
-0.391482 -0.201404 0.029745 0.000000 0.000000 1.000000
-0.425201 0.404434 0.030096 0.000000 0.000000 1.000000
0.433075 -0.096617 0.023560 1.000000 0.000000 0.000000
0.166256 0.651529 0.030427 0.000000 0.000000 1.000000
-0.393725 0.798026 0.003292 0.000000 0.000000 1.000000
0.289255 0.837829 0.064606 1.000000 0.000000 0.000000
0.433075 -0.470337 0.009168 1.000000 0.000000 0.000000
-0.030334 -0.736713 0.029849 0.000000 0.000000 1.000000
-0.066176 0.586057 -0.026719 0.000000 0.000000 1.000000
0.089020 -0.456544 0.030097 0.000000 0.000000 1.000000
-0.107974 0.806972 0.080702 1.000000 0.000000 0.000000
0.475171 -0.194614 -0.074038 1.000000 0.000000 0.000000
0.105649 0.837829 0.001044 1.000000 0.000000 0.000000
-0.169406 0.135538 -0.026720 0.000000 0.000000 1.000000
0.433075 -0.414545 -0.025391 1.000000 0.000000 0.000000
0.021415 -0.478932 -0.026887 0.000000 0.000000 1.000000
0.475171 -0.325977 -0.033775 1.000000 0.000000 0.000000
-0.130902 -0.239688 0.030431 0.000000 0.000000 1.000000
-0.348126 0.067416 -0.026885 0.000000 0.000000 1.000000
-0.232248 -0.888110 0.028498 1.000000 0.000000 0.000000
0.475171 0.257287 0.006052 1.000000 0.000000 0.000000
0.019481 0.434654 -0.026887 0.000000 0.000000 1.000000
0.433075 0.288151 -0.054503 1.000000 0.000000 0.000000
-0.161460 -0.375302 0.030431 0.000000 0.000000 1.000000
-0.117942 -0.674822 -0.026887 0.000000 0.000000 1.000000
-0.240462 0.269003 0.037208 1.000000 0.000000 0.000000
0.475171 -0.472454 0.038267 1.000000 0.000000 0.000000
-0.044560 -0.588062 -0.026887 0.000000 0.000000 1.000000
-0.286704 -0.670822 -0.026887 0.000000 0.000000 1.000000
-0.240323 0.487454 0.080702 1.000000 0.000000 0.000000
-0.198366 -0.074689 -0.070580 1.000000 0.000000 0.000000
0.088023 0.452973 0.030097 0.000000 0.000000 1.000000
0.433075 -0.393427 0.079633 1.000000 0.000000 0.000000
0.475171 0.503449 0.067800 1.000000 0.000000 0.000000
-0.131342 0.672662 -0.026788 0.000000 0.000000 1.000000
-0.061696 0.795733 0.050057 1.000000 0.000000 0.000000
-0.340846 -0.109969 0.030088 0.000000 0.000000 1.000000
-0.217650 -0.844268 -0.026887 0.000000 0.000000 1.000000
-0.108510 -0.664517 0.030088 0.000000 0.000000 1.000000
0.104439 -0.425093 0.030096 0.000000 0.000000 1.000000
0.292186 0.811431 0.080702 1.000000 0.000000 0.000000
-0.215654 0.042288 0.028082 1.000000 0.000000 0.000000
0.029456 0.116279 0.029623 0.000000 0.000000 1.000000
0.434200 0.837829 0.061963 1.000000 0.000000 0.000000
0.475171 -0.038607 0.037069 1.000000 0.000000 0.000000
-0.230906 -0.542202 0.080702 1.000000 0.000000 0.000000
-0.223001 0.568546 -0.024538 1.000000 0.000000 0.000000
-0.199929 -0.415083 -0.026887 0.000000 0.000000 1.000000
-0.356296 0.339791 -0.026886 0.000000 0.000000 1.000000
-0.350753 0.139675 -0.026885 0.000000 0.000000 1.000000
-0.407151 -0.594252 -0.026883 0.000000 0.000000 1.000000
-0.075651 -0.833799 0.029429 0.000000 0.000000 1.000000
-0.429777 0.281608 0.029477 0.000000 0.000000 1.000000
-0.188325 -0.440375 0.029854 0.000000 0.000000 1.000000
0.054539 0.499968 -0.026887 0.000000 0.000000 1.000000
-0.166755 0.795733 0.067732 1.000000 0.000000 0.000000
-0.197395 0.795733 0.064002 1.000000 0.000000 0.000000
0.433075 -0.253230 0.049079 1.000000 0.000000 0.000000
-0.252439 -0.467360 0.029430 0.000000 0.000000 1.000000
0.433075 -0.665942 -0.011397 1.000000 0.000000 0.000000
-0.048849 -0.431778 0.030046 0.000000 0.000000 1.000000
0.475171 -0.080794 0.031121 1.000000 0.000000 0.000000
-0.316701 0.301059 0.029917 0.000000 0.000000 1.000000
0.152596 -0.244743 -0.026887 0.000000 0.000000 1.000000
-0.240011 -0.200448 0.028082 1.000000 0.000000 0.000000
-0.298884 0.273715 -0.026887 0.000000 0.000000 1.000000
-0.071338 -0.051738 -0.026744 0.000000 0.000000 1.000000
0.166881 0.781945 0.030108 0.000000 0.000000 1.000000
0.157677 -0.815928 -0.026887 0.000000 0.000000 1.000000
0.433075 0.602155 -0.017646 1.000000 0.000000 0.000000
-0.016263 0.837829 -0.028670 1.000000 0.000000 0.000000
0.447634 -0.774666 -0.077158 1.000000 0.000000 0.000000
-0.198366 0.613924 0.066782 1.000000 0.000000 0.000000
-0.215473 0.721611 -0.077158 1.000000 0.000000 0.000000
0.149897 0.286303 -0.026887 0.000000 0.000000 1.000000
0.160723 0.837829 -0.065868 1.000000 0.000000 0.000000
0.475171 -0.810598 0.071257 1.000000 0.000000 0.000000
-0.198366 -0.115367 0.028748 1.000000 0.000000 0.000000
0.077007 -0.674293 0.030303 0.000000 0.000000 1.000000
-0.249665 -0.316824 0.030431 0.000000 0.000000 1.000000
-0.198366 0.142033 0.061674 1.000000 0.000000 0.000000
-0.220472 0.316451 -0.024538 1.000000 0.000000 0.000000
-0.225664 -0.166092 0.028082 1.000000 0.000000 0.000000
0.246302 0.795733 -0.005829 1.000000 0.000000 0.000000
-0.203439 0.795779 -0.077158 1.000000 0.000000 0.000000
0.445230 0.710951 0.080702 1.000000 0.000000 0.000000
-0.198366 0.648040 0.062942 1.000000 0.000000 0.000000
-0.006550 -0.236662 0.030431 0.000000 0.000000 1.000000
0.003634 -0.100573 -0.026887 0.000000 0.000000 1.000000
-0.426627 -0.833767 0.029874 0.000000 0.000000 1.000000
0.433075 -0.282175 0.042187 1.000000 0.000000 0.000000
-0.300116 -0.449024 0.029759 0.000000 0.000000 1.000000
0.475078 -0.213457 -0.077158 1.000000 0.000000 0.000000
0.433075 -0.630460 0.016025 1.000000 0.000000 0.000000
-0.205474 0.754446 -0.077158 1.000000 0.000000 0.000000
0.197649 -0.076329 -0.019224 0.000000 0.000000 1.000000
0.197483 -0.642604 -0.019253 0.000000 0.000000 1.000000
-0.328946 -0.198365 -0.026887 0.000000 0.000000 1.000000
0.433075 -0.174622 0.015459 1.000000 0.000000 0.000000
0.042412 -0.166419 0.029779 0.000000 0.000000 1.000000
-0.214903 0.255561 0.080702 1.000000 0.000000 0.000000
0.101743 0.804703 -0.077158 1.000000 0.000000 0.000000
0.035614 -0.083116 -0.026887 0.000000 0.000000 1.000000
-0.405315 -0.552889 -0.026884 0.000000 0.000000 1.000000
-0.221531 -0.298838 0.030431 0.000000 0.000000 1.000000
0.198228 -0.087387 -0.007368 0.000000 0.000000 1.000000
-0.114797 -0.235373 0.030431 0.000000 0.000000 1.000000
-0.278937 -0.604923 -0.026887 0.000000 0.000000 1.000000
0.101784 0.440927 0.030097 0.000000 0.000000 1.000000
-0.294150 -0.001112 0.030431 0.000000 0.000000 1.000000
-0.235688 0.434309 0.080702 1.000000 0.000000 0.000000
-0.240462 -0.286793 -0.027894 1.000000 0.000000 0.000000
-0.343539 -0.146554 0.030189 0.000000 0.000000 1.000000
0.433075 -0.078945 0.073285 1.000000 0.000000 0.000000
0.433075 -0.013340 -0.007827 1.000000 0.000000 0.000000
0.109852 0.587397 -0.026886 0.000000 0.000000 1.000000
0.140316 0.118868 -0.026887 0.000000 0.000000 1.000000
0.433075 -0.370029 -0.009119 1.000000 0.000000 0.000000
0.342056 0.833900 0.080702 1.000000 0.000000 0.000000
-0.437170 -0.575484 -0.015134 0.000000 0.000000 1.000000
0.131471 -0.788975 -0.026887 0.000000 0.000000 1.000000
-0.325871 -0.403719 -0.026887 0.000000 0.000000 1.000000
0.459551 0.520442 0.080702 1.000000 0.000000 0.000000
-0.086001 0.231718 -0.026719 0.000000 0.000000 1.000000
-0.234320 0.462194 -0.024538 1.000000 0.000000 0.000000
0.433075 -0.831057 0.035414 1.000000 0.000000 0.000000
0.433075 0.402057 0.029558 1.000000 0.000000 0.000000
-0.202096 -0.548653 -0.077158 1.000000 0.000000 0.000000
-0.035331 -0.695307 -0.026887 0.000000 0.000000 1.000000
-0.384786 0.012200 0.030430 0.000000 0.000000 1.000000
0.433075 -0.441921 0.055565 1.000000 0.000000 0.000000
0.016172 -0.062888 0.030182 0.000000 0.000000 1.000000
0.475171 -0.672800 -0.059274 1.000000 0.000000 0.000000
-0.401670 -0.146684 -0.026885 0.000000 0.000000 1.000000
0.198600 0.078300 -0.002044 0.000000 0.000000 1.000000
-0.222403 0.617958 0.080702 1.000000 0.000000 0.000000
0.041903 0.784777 -0.026081 0.000000 0.000000 1.000000
0.024473 -0.162595 0.029710 0.000000 0.000000 1.000000
-0.311287 0.669570 -0.026826 0.000000 0.000000 1.000000
0.167153 0.245583 0.030427 0.000000 0.000000 1.000000
-0.003782 -0.780215 0.029430 0.000000 0.000000 1.000000
-0.198366 0.516267 0.043380 1.000000 0.000000 0.000000
-0.006226 0.542334 0.030371 0.000000 0.000000 1.000000
-0.240462 0.799076 -0.031954 1.000000 0.000000 0.000000
0.475171 0.339729 0.040905 1.000000 0.000000 0.000000
-0.162379 -0.327004 0.030431 0.000000 0.000000 1.000000
-0.359889 0.744803 0.029673 0.000000 0.000000 1.000000
0.081948 -0.829659 -0.026887 0.000000 0.000000 1.000000
0.148686 0.147827 -0.026887 0.000000 0.000000 1.000000
-0.087671 0.469838 0.030263 0.000000 0.000000 1.000000
-0.371082 -0.194253 -0.026886 0.000000 0.000000 1.000000
0.175962 -0.780063 -0.026878 0.000000 0.000000 1.000000
0.041864 0.795733 0.059494 1.000000 0.000000 0.000000
-0.180055 -0.075318 -0.026779 0.000000 0.000000 1.000000
0.300008 0.837829 0.037321 1.000000 0.000000 0.000000
0.475171 -0.523718 0.001191 1.000000 0.000000 0.000000
0.019925 -0.505703 -0.026887 0.000000 0.000000 1.000000
-0.120928 0.554862 -0.026875 0.000000 0.000000 1.000000
0.053593 0.317233 0.029866 0.000000 0.000000 1.000000
-0.303539 -0.849536 -0.026887 0.000000 0.000000 1.000000
-0.231000 -0.122042 -0.024538 1.000000 0.000000 0.000000
0.198089 -0.751046 0.010652 0.000000 0.000000 1.000000
0.433075 0.326110 0.014806 1.000000 0.000000 0.000000
-0.139747 0.824331 0.080702 1.000000 0.000000 0.000000
0.475171 -0.006644 -0.036803 1.000000 0.000000 0.000000
0.475171 0.536300 -0.063234 1.000000 0.000000 0.000000
-0.388224 -0.550545 -0.026886 0.000000 0.000000 1.000000
0.152487 -0.726943 0.029795 0.000000 0.000000 1.000000
-0.235491 -0.406652 0.030267 0.000000 0.000000 1.000000
-0.167757 -0.808210 0.030431 0.000000 0.000000 1.000000
0.043914 0.837829 0.034879 1.000000 0.000000 0.000000
0.475171 -0.769827 0.068176 1.000000 0.000000 0.000000
0.089615 -0.711649 0.029486 0.000000 0.000000 1.000000
-0.309234 0.196064 0.030431 0.000000 0.000000 1.000000
0.178888 0.467465 -0.026799 0.000000 0.000000 1.000000
0.091953 0.389241 -0.026886 0.000000 0.000000 1.000000
-0.229528 0.291957 -0.024538 1.000000 0.000000 0.000000
0.069580 -0.808608 -0.026887 0.000000 0.000000 1.000000
-0.240462 0.682532 0.067518 1.000000 0.000000 0.000000
-0.006164 -0.465942 0.030431 0.000000 0.000000 1.000000
0.116767 0.660218 0.030097 0.000000 0.000000 1.000000
0.475171 -0.632523 0.028496 1.000000 0.000000 0.000000
-0.137830 -0.313407 -0.026887 0.000000 0.000000 1.000000
0.057436 0.517344 0.030111 0.000000 0.000000 1.000000
-0.346583 0.673113 -0.026811 0.000000 0.000000 1.000000
-0.240462 0.283392 -0.055523 1.000000 0.000000 0.000000
-0.117306 -0.604581 0.030431 0.000000 0.000000 1.000000
0.464621 0.313496 -0.077158 1.000000 0.000000 0.000000
-0.379597 -0.106935 -0.026887 0.000000 0.000000 1.000000
-0.198366 -0.390985 -0.054480 1.000000 0.000000 0.000000
-0.014929 -0.443890 -0.026887 0.000000 0.000000 1.000000
0.317518 0.795733 0.055606 1.000000 0.000000 0.000000
0.065926 -0.824488 -0.026887 0.000000 0.000000 1.000000
-0.060282 -0.322022 0.030412 0.000000 0.000000 1.000000
-0.437431 0.362828 -0.008625 0.000000 0.000000 1.000000
0.457866 0.163334 -0.077158 1.000000 0.000000 0.000000
0.238872 0.795733 0.054465 1.000000 0.000000 0.000000
-0.231550 0.052551 0.080702 1.000000 0.000000 0.000000
-0.147375 0.458975 -0.026720 0.000000 0.000000 1.000000
0.475171 0.141893 -0.039733 1.000000 0.000000 0.000000
-0.339538 0.207020 0.030430 0.000000 0.000000 1.000000
-0.350594 -0.162958 -0.026887 0.000000 0.000000 1.000000
0.001003 -0.364933 0.029430 0.000000 0.000000 1.000000
-0.114945 0.795733 0.014888 1.000000 0.000000 0.000000
0.475171 -0.373863 0.048380 1.000000 0.000000 0.000000
0.168851 -0.802492 0.030023 0.000000 0.000000 1.000000
0.433075 0.734845 -0.063339 1.000000 0.000000 0.000000
0.061934 -0.736416 0.029429 0.000000 0.000000 1.000000
-0.240462 0.654162 -0.065438 1.000000 0.000000 0.000000
0.189211 0.202614 -0.026471 0.000000 0.000000 1.000000
0.475171 0.436090 0.000462 1.000000 0.000000 0.000000
0.433075 0.265584 0.040752 1.000000 0.000000 0.000000
-0.010171 0.197156 -0.026887 0.000000 0.000000 1.000000
-0.083326 -0.264266 -0.026887 0.000000 0.000000 1.000000
0.250813 0.825663 -0.077158 1.000000 0.000000 0.000000
-0.027918 -0.227281 0.030431 0.000000 0.000000 1.000000
0.097680 0.837829 0.071165 1.000000 0.000000 0.000000
0.433075 0.640818 0.036948 1.000000 0.000000 0.000000
0.281184 0.795733 -0.017058 1.000000 0.000000 0.000000
0.433075 0.490570 -0.015223 1.000000 0.000000 0.000000
-0.229088 -0.686030 0.080702 1.000000 0.000000 0.000000
-0.014553 -0.662860 -0.026887 0.000000 0.000000 1.000000
-0.255285 -0.843926 0.030431 0.000000 0.000000 1.000000
-0.281353 0.797615 0.015149 0.000000 0.000000 1.000000
-0.235993 -0.010481 0.028082 1.000000 0.000000 0.000000
-0.198366 -0.322805 -0.054008 1.000000 0.000000 0.000000
-0.334002 -0.885157 0.027002 0.000000 0.000000 1.000000
-0.210307 -0.761373 0.028082 1.000000 0.000000 0.000000
0.437225 0.164183 0.080702 1.000000 0.000000 0.000000
0.451531 0.213112 0.080702 1.000000 0.000000 0.000000
-0.075147 0.331332 0.030111 0.000000 0.000000 1.000000
0.076204 -0.535316 0.030431 0.000000 0.000000 1.000000
-0.437482 0.751597 0.004350 0.000000 0.000000 1.000000
0.424321 0.823788 -0.077158 1.000000 0.000000 0.000000
-0.124693 0.698456 0.030387 0.000000 0.000000 1.000000
-0.128273 0.423154 0.030021 0.000000 0.000000 1.000000
0.433075 0.546151 -0.056124 1.000000 0.000000 0.000000
0.102159 -0.175060 0.030180 0.000000 0.000000 1.000000
-0.105986 -0.274337 -0.026887 0.000000 0.000000 1.000000
-0.198366 -0.536473 -0.060894 1.000000 0.000000 0.000000
-0.414985 0.003452 0.030424 0.000000 0.000000 1.000000
0.165603 -0.350291 -0.026883 0.000000 0.000000 1.000000
-0.198366 0.345229 0.062370 1.000000 0.000000 0.000000
-0.429402 -0.817386 0.029650 0.000000 0.000000 1.000000
-0.338865 -0.388810 0.030425 0.000000 0.000000 1.000000
-0.186135 -0.192362 0.030263 0.000000 0.000000 1.000000
0.433075 -0.577439 0.018369 1.000000 0.000000 0.000000
-0.149589 -0.814052 -0.026887 0.000000 0.000000 1.000000
0.433075 -0.218562 -0.049542 1.000000 0.000000 0.000000
-0.416619 0.798023 0.001546 0.000000 0.000000 1.000000
-0.346081 -0.258696 0.030313 0.000000 0.000000 1.000000
0.182899 0.745187 -0.026672 0.000000 0.000000 1.000000
0.096525 -0.580404 -0.026886 0.000000 0.000000 1.000000
0.433075 -0.589810 -0.027457 1.000000 0.000000 0.000000
-0.092003 0.292628 0.030248 0.000000 0.000000 1.000000
0.086188 -0.126410 -0.026887 0.000000 0.000000 1.000000
-0.346002 -0.890333 -0.008657 0.000000 0.000000 1.000000
0.450193 0.362555 0.080702 1.000000 0.000000 0.000000
0.041432 0.150051 0.029682 0.000000 0.000000 1.000000
0.199392 0.796763 0.080702 1.000000 0.000000 0.000000
0.475171 -0.242883 0.043411 1.000000 0.000000 0.000000
0.183352 -0.473377 -0.026657 0.000000 0.000000 1.000000
0.184918 0.723762 0.030149 0.000000 0.000000 1.000000
0.382464 0.795733 0.071102 1.000000 0.000000 0.000000
0.433952 0.566886 -0.077158 1.000000 0.000000 0.000000
-0.074024 0.837829 0.025481 1.000000 0.000000 0.000000
0.437904 0.837829 0.019575 1.000000 0.000000 0.000000
0.475171 0.819054 -0.072551 1.000000 0.000000 0.000000
-0.250070 0.711361 -0.026721 0.000000 0.000000 1.000000
-0.424749 0.794112 -0.022248 0.000000 0.000000 1.000000
0.004763 -0.299377 -0.026887 0.000000 0.000000 1.000000
0.078051 0.397793 0.030333 0.000000 0.000000 1.000000
0.198212 -0.259939 -0.009672 0.000000 0.000000 1.000000
-0.260889 -0.524011 0.029551 0.000000 0.000000 1.000000
0.230741 0.829361 0.080702 1.000000 0.000000 0.000000
-0.350157 0.709535 -0.026886 0.000000 0.000000 1.000000
-0.057120 -0.564667 -0.026887 0.000000 0.000000 1.000000
-0.233817 0.271637 0.080702 1.000000 0.000000 0.000000
0.075314 -0.072094 -0.026887 0.000000 0.000000 1.000000
-0.220125 0.496801 0.080702 1.000000 0.000000 0.000000
0.185323 0.465619 0.030136 0.000000 0.000000 1.000000
-0.212646 -0.431111 -0.077158 1.000000 0.000000 0.000000
-0.181784 -0.841072 0.030431 0.000000 0.000000 1.000000
0.475171 -0.721168 0.046005 1.000000 0.000000 0.000000
0.424649 0.795733 -0.050252 1.000000 0.000000 0.000000
0.433075 -0.740982 0.055405 1.000000 0.000000 0.000000
-0.228774 -0.115845 0.028082 1.000000 0.000000 0.000000
-0.262392 0.580710 0.030431 0.000000 0.000000 1.000000
0.010129 -0.737067 -0.026887 0.000000 0.000000 1.000000
-0.436377 0.758971 0.024385 0.000000 0.000000 1.000000
-0.198366 -0.581575 -0.061211 1.000000 0.000000 0.000000
-0.293387 0.704887 0.030083 0.000000 0.000000 1.000000
0.010995 -0.205845 0.030372 0.000000 0.000000 1.000000
0.073794 0.430500 -0.026887 0.000000 0.000000 1.000000
0.475171 -0.816015 -0.053836 1.000000 0.000000 0.000000
0.475171 0.592959 0.062885 1.000000 0.000000 0.000000
0.446571 0.448651 0.080702 1.000000 0.000000 0.000000
-0.392511 0.689557 0.030431 0.000000 0.000000 1.000000
0.433075 -0.493421 0.009377 1.000000 0.000000 0.000000
-0.135932 -0.437150 -0.026887 0.000000 0.000000 1.000000
-0.185950 -0.228740 -0.026887 0.000000 0.000000 1.000000
-0.078232 -0.718953 0.030431 0.000000 0.000000 1.000000
-0.269064 -0.806127 0.029960 0.000000 0.000000 1.000000
-0.198963 -0.679265 0.029822 0.000000 0.000000 1.000000
-0.426717 -0.643772 -0.026506 0.000000 0.000000 1.000000
0.475171 -0.475022 0.006270 1.000000 0.000000 0.000000
0.433075 -0.565615 0.074676 1.000000 0.000000 0.000000
-0.087517 0.197141 -0.026719 0.000000 0.000000 1.000000
-0.198366 -0.224680 0.070816 1.000000 0.000000 0.000000
0.446853 0.409166 0.080702 1.000000 0.000000 0.000000
0.061138 0.837829 -0.046310 1.000000 0.000000 0.000000
-0.346521 -0.709975 0.029603 0.000000 0.000000 1.000000
-0.066277 0.286061 -0.026803 0.000000 0.000000 1.000000
-0.238226 0.309233 0.028082 1.000000 0.000000 0.000000
0.475171 -0.484740 0.074231 1.000000 0.000000 0.000000
-0.022838 -0.355442 -0.026887 0.000000 0.000000 1.000000
-0.057510 0.795733 -0.013261 1.000000 0.000000 0.000000
-0.032172 -0.023640 -0.026887 0.000000 0.000000 1.000000
-0.165769 -0.119531 -0.026887 0.000000 0.000000 1.000000
-0.209307 -0.150438 0.028082 1.000000 0.000000 0.000000
-0.243923 0.145442 -0.026887 0.000000 0.000000 1.000000
0.475171 -0.285484 -0.030375 1.000000 0.000000 0.000000
-0.240462 -0.356604 0.079321 1.000000 0.000000 0.000000
0.437327 0.738934 -0.077158 1.000000 0.000000 0.000000
-0.234315 -0.656611 -0.077158 1.000000 0.000000 0.000000
-0.144031 -0.199214 -0.026887 0.000000 0.000000 1.000000
-0.044566 0.019002 -0.026887 0.000000 0.000000 1.000000
-0.295182 0.356301 -0.026887 0.000000 0.000000 1.000000
0.386330 0.835365 0.080702 1.000000 0.000000 0.000000
-0.231111 -0.536780 0.030339 0.000000 0.000000 1.000000
0.441885 -0.361367 0.080702 1.000000 0.000000 0.000000
-0.103785 0.389601 0.030228 0.000000 0.000000 1.000000
-0.089485 -0.689087 0.030155 0.000000 0.000000 1.000000
0.475171 0.202228 0.038300 1.000000 0.000000 0.000000
0.433075 0.793946 -0.027629 1.000000 0.000000 0.000000
0.049653 -0.040595 0.030431 0.000000 0.000000 1.000000
-0.417226 -0.341928 0.029739 0.000000 0.000000 1.000000
0.159045 0.068347 0.030295 0.000000 0.000000 1.000000
0.027852 0.452079 -0.026887 0.000000 0.000000 1.000000
0.198519 0.477531 -0.013286 0.000000 0.000000 1.000000
-0.279814 -0.121231 -0.026887 0.000000 0.000000 1.000000
0.475171 -0.766832 0.007296 1.000000 0.000000 0.000000
-0.419424 0.607531 0.030286 0.000000 0.000000 1.000000
0.475171 0.573203 0.017158 1.000000 0.000000 0.000000
0.027145 0.263888 -0.026887 0.000000 0.000000 1.000000
-0.043030 -0.808218 -0.026887 0.000000 0.000000 1.000000
0.433075 -0.698442 -0.072168 1.000000 0.000000 0.000000
-0.410951 -0.401520 0.029679 0.000000 0.000000 1.000000
0.475171 0.008404 -0.020591 1.000000 0.000000 0.000000
-0.240462 -0.174934 0.076262 1.000000 0.000000 0.000000
0.201714 0.837829 0.036652 1.000000 0.000000 0.000000
-0.240462 -0.547781 0.054166 1.000000 0.000000 0.000000
-0.122996 0.230168 -0.026857 0.000000 0.000000 1.000000
0.456685 0.770101 -0.077158 1.000000 0.000000 0.000000
0.099371 0.795733 -0.045559 1.000000 0.000000 0.000000
-0.107193 0.528674 -0.026785 0.000000 0.000000 1.000000
-0.312007 -0.313923 0.030431 0.000000 0.000000 1.000000
-0.240462 -0.871656 -0.062308 1.000000 0.000000 0.000000
0.095838 -0.052131 -0.026886 0.000000 0.000000 1.000000
-0.250110 0.408349 0.030431 0.000000 0.000000 1.000000
-0.381883 0.345107 0.030429 0.000000 0.000000 1.000000
0.109833 -0.642261 -0.026886 0.000000 0.000000 1.000000
-0.217645 -0.066395 0.080702 1.000000 0.000000 0.000000
0.110344 0.081890 0.030097 0.000000 0.000000 1.000000
-0.334719 -0.610948 0.030196 0.000000 0.000000 1.000000
0.433075 0.531881 -0.047274 1.000000 0.000000 0.000000
0.029101 -0.135703 0.029451 0.000000 0.000000 1.000000
-0.398965 0.564724 0.030430 0.000000 0.000000 1.000000
0.197885 0.394055 -0.018032 0.000000 0.000000 1.000000
-0.047736 0.613792 0.030408 0.000000 0.000000 1.000000
-0.198366 -0.302381 -0.035572 1.000000 0.000000 0.000000
-0.240462 -0.848856 0.041496 1.000000 0.000000 0.000000
-0.018247 -0.443643 0.030261 0.000000 0.000000 1.000000
0.168009 -0.003397 0.029752 0.000000 0.000000 1.000000
0.088410 -0.510595 -0.026886 0.000000 0.000000 1.000000
-0.226183 -0.577231 0.080702 1.000000 0.000000 0.000000
0.081414 -0.848635 0.029559 0.000000 0.000000 1.000000
0.433075 -0.570029 -0.011827 1.000000 0.000000 0.000000
-0.065415 -0.861537 -0.026853 0.000000 0.000000 1.000000
-0.078589 0.242389 0.030263 0.000000 0.000000 1.000000
-0.136927 0.470190 0.029948 0.000000 0.000000 1.000000
-0.236593 0.496646 -0.026887 0.000000 0.000000 1.000000
-0.261479 -0.890289 -0.012517 0.000000 0.000000 1.000000
-0.117199 0.795733 -0.064371 1.000000 0.000000 0.000000
0.141112 -0.445023 0.029735 0.000000 0.000000 1.000000
0.011013 0.305881 -0.026885 0.000000 0.000000 1.000000
0.475171 -0.573798 -0.048206 1.000000 0.000000 0.000000
0.146658 0.274509 0.030431 0.000000 0.000000 1.000000
0.449613 0.566920 0.080702 1.000000 0.000000 0.000000
0.159138 0.372700 -0.026886 0.000000 0.000000 1.000000
-0.361963 0.114349 0.030429 0.000000 0.000000 1.000000
0.062098 -0.623451 -0.026887 0.000000 0.000000 1.000000
-0.437438 -0.023538 -0.007503 0.000000 0.000000 1.000000
-0.291075 0.539746 0.030371 0.000000 0.000000 1.000000
0.475171 -0.297771 -0.039910 1.000000 0.000000 0.000000
-0.108480 0.256447 -0.026823 0.000000 0.000000 1.000000
-0.160276 -0.070241 -0.026803 0.000000 0.000000 1.000000
0.024713 0.174520 0.030298 0.000000 0.000000 1.000000
-0.306801 0.320418 -0.026885 0.000000 0.000000 1.000000
0.088034 0.119064 -0.026886 0.000000 0.000000 1.000000
0.197252 0.628861 -0.022467 0.000000 0.000000 1.000000
-0.198366 -0.409260 -0.074273 1.000000 0.000000 0.000000
0.472733 0.063419 -0.077158 1.000000 0.000000 0.000000
0.462032 -0.830185 0.080702 1.000000 0.000000 0.000000
0.274490 0.835586 -0.077158 1.000000 0.000000 0.000000
-0.333083 0.547782 0.030430 0.000000 0.000000 1.000000
0.433075 -0.502257 -0.052537 1.000000 0.000000 0.000000
-0.314471 0.397036 0.030392 0.000000 0.000000 1.000000
0.475171 0.545897 0.031729 1.000000 0.000000 0.000000
-0.053282 0.821330 0.080702 1.000000 0.000000 0.000000
0.474578 0.727058 0.080702 1.000000 0.000000 0.000000
0.433075 -0.112570 -0.006123 1.000000 0.000000 0.000000
0.080160 0.811274 -0.077158 1.000000 0.000000 0.000000
-0.167408 0.374359 -0.026720 0.000000 0.000000 1.000000
-0.198366 -0.714904 0.080232 1.000000 0.000000 0.000000
0.475171 0.478024 0.045110 1.000000 0.000000 0.000000
0.041448 -0.658770 0.030220 0.000000 0.000000 1.000000
0.183863 0.834993 0.080702 1.000000 0.000000 0.000000
-0.373644 0.717077 -0.026887 0.000000 0.000000 1.000000
-0.252355 0.189664 -0.026887 0.000000 0.000000 1.000000
-0.058258 0.804653 0.080702 1.000000 0.000000 0.000000
-0.403609 0.246351 0.030428 0.000000 0.000000 1.000000
0.433075 0.194743 0.031292 1.000000 0.000000 0.000000
0.475171 0.667570 0.073642 1.000000 0.000000 0.000000
0.475171 0.640771 -0.017916 1.000000 0.000000 0.000000
-0.198366 0.151086 -0.061264 1.000000 0.000000 0.000000
0.143813 0.491538 -0.026887 0.000000 0.000000 1.000000
0.433075 0.620548 -0.038941 1.000000 0.000000 0.000000
0.433075 -0.778642 0.077535 1.000000 0.000000 0.000000
-0.236450 0.567873 0.030162 0.000000 0.000000 1.000000
0.456459 0.612059 0.080702 1.000000 0.000000 0.000000
0.065018 -0.266590 0.029752 0.000000 0.000000 1.000000
0.266746 0.837829 -0.041227 1.000000 0.000000 0.000000
0.091682 0.837829 0.043029 1.000000 0.000000 0.000000
0.018681 -0.181883 -0.026887 0.000000 0.000000 1.000000
-0.215668 -0.043207 0.080702 1.000000 0.000000 0.000000
0.433075 0.223119 0.032250 1.000000 0.000000 0.000000
0.433075 0.293129 0.030559 1.000000 0.000000 0.000000
-0.431262 -0.513868 0.028558 0.000000 0.000000 1.000000
-0.240462 -0.300202 0.040049 1.000000 0.000000 0.000000
0.433075 0.313758 0.001367 1.000000 0.000000 0.000000
-0.218060 -0.732182 -0.077158 1.000000 0.000000 0.000000
-0.209521 -0.249750 0.028082 1.000000 0.000000 0.000000
-0.088776 -0.047137 0.030263 0.000000 0.000000 1.000000
0.133981 0.797739 -0.008014 0.000000 0.000000 1.000000
-0.240137 0.747519 0.080702 1.000000 0.000000 0.000000
-0.198366 -0.275246 0.059102 1.000000 0.000000 0.000000
-0.240462 -0.147623 -0.061169 1.000000 0.000000 0.000000
-0.240462 0.424822 0.044675 1.000000 0.000000 0.000000
0.018576 0.795733 -0.012541 1.000000 0.000000 0.000000
0.461399 -0.307187 0.080702 1.000000 0.000000 0.000000
-0.427619 0.493622 -0.026477 0.000000 0.000000 1.000000
0.186327 0.098254 -0.026563 0.000000 0.000000 1.000000
0.074310 -0.789474 -0.026887 0.000000 0.000000 1.000000
0.445362 0.294653 -0.077158 1.000000 0.000000 0.000000
-0.431055 -0.328432 0.028645 0.000000 0.000000 1.000000
0.198262 0.630966 -0.002569 0.000000 0.000000 1.000000
0.197177 -0.405264 0.026236 0.000000 0.000000 1.000000
-0.201349 0.837829 0.072123 1.000000 0.000000 0.000000
-0.240462 -0.671941 -0.028332 1.000000 0.000000 0.000000
0.161072 -0.332683 -0.026886 0.000000 0.000000 1.000000
0.095532 -0.108469 0.029978 0.000000 0.000000 1.000000
-0.213664 -0.581636 -0.024538 1.000000 0.000000 0.000000
0.291354 0.819011 -0.077158 1.000000 0.000000 0.000000
-0.289583 -0.857697 -0.026887 0.000000 0.000000 1.000000
-0.198366 0.574836 0.045677 1.000000 0.000000 0.000000
0.433075 -0.556031 -0.006955 1.000000 0.000000 0.000000
-0.116827 0.837829 0.024703 1.000000 0.000000 0.000000
0.111114 -0.082151 -0.026887 0.000000 0.000000 1.000000
0.015419 -0.536260 -0.026887 0.000000 0.000000 1.000000
0.475171 -0.209899 0.008674 1.000000 0.000000 0.000000
-0.240462 -0.465119 0.066759 1.000000 0.000000 0.000000
0.433075 -0.709098 -0.040043 1.000000 0.000000 0.000000
-0.069102 -0.793992 -0.026887 0.000000 0.000000 1.000000
0.475171 -0.396925 -0.059125 1.000000 0.000000 0.000000
-0.094895 0.130898 -0.026720 0.000000 0.000000 1.000000
0.433075 -0.029557 -0.029527 1.000000 0.000000 0.000000
-0.437478 0.628487 0.005163 0.000000 0.000000 1.000000
0.475171 0.353486 0.029329 1.000000 0.000000 0.000000
-0.246707 0.673319 0.030275 0.000000 0.000000 1.000000
0.169946 -0.513249 0.029635 0.000000 0.000000 1.000000
-0.240462 -0.886030 -0.058193 1.000000 0.000000 0.000000
-0.307814 0.157385 -0.026887 0.000000 0.000000 1.000000
-0.139334 0.247233 -0.026721 0.000000 0.000000 1.000000
0.468216 -0.716876 -0.077158 1.000000 0.000000 0.000000
0.433075 0.392491 -0.005589 1.000000 0.000000 0.000000
-0.309362 -0.144625 0.029841 0.000000 0.000000 1.000000
-0.236171 0.373990 0.080702 1.000000 0.000000 0.000000
0.098053 -0.286384 0.029958 0.000000 0.000000 1.000000
0.076116 0.061842 0.030267 0.000000 0.000000 1.000000
-0.198366 0.704743 -0.073486 1.000000 0.000000 0.000000
-0.251188 0.433587 0.030431 0.000000 0.000000 1.000000
0.475171 -0.874990 -0.021423 1.000000 0.000000 0.000000
-0.381406 0.132295 0.030429 0.000000 0.000000 1.000000
-0.367277 0.489753 0.030429 0.000000 0.000000 1.000000
-0.281644 -0.744447 -0.026887 0.000000 0.000000 1.000000
-0.039660 0.501622 0.029864 0.000000 0.000000 1.000000
-0.052641 -0.198205 0.030306 0.000000 0.000000 1.000000
0.209597 0.795733 0.056870 1.000000 0.000000 0.000000
0.133638 -0.396918 0.029763 0.000000 0.000000 1.000000
0.469554 -0.198893 0.080702 1.000000 0.000000 0.000000
0.475171 -0.766777 0.039778 1.000000 0.000000 0.000000
-0.223370 -0.145223 -0.077158 1.000000 0.000000 0.000000
0.467794 -0.103376 0.080702 1.000000 0.000000 0.000000
0.467430 0.837829 -0.063253 1.000000 0.000000 0.000000
-0.242222 0.675675 -0.026720 0.000000 0.000000 1.000000
-0.214735 -0.058447 0.028082 1.000000 0.000000 0.000000
0.475171 0.430596 -0.069844 1.000000 0.000000 0.000000
-0.369906 0.453372 0.030429 0.000000 0.000000 1.000000
0.433075 0.049117 -0.055568 1.000000 0.000000 0.000000
-0.168547 0.223355 -0.026720 0.000000 0.000000 1.000000
-0.205212 0.592666 -0.077158 1.000000 0.000000 0.000000
0.470998 -0.339096 0.080702 1.000000 0.000000 0.000000
0.433075 -0.351632 -0.009327 1.000000 0.000000 0.000000
-0.237588 -0.752901 -0.077158 1.000000 0.000000 0.000000
0.475171 0.466173 -0.009680 1.000000 0.000000 0.000000
0.069686 0.159716 -0.026887 0.000000 0.000000 1.000000
0.136644 -0.487932 -0.026887 0.000000 0.000000 1.000000
0.198216 -0.433883 0.012173 0.000000 0.000000 1.000000
-0.198366 -0.192762 0.039401 1.000000 0.000000 0.000000
0.475171 0.022499 0.026367 1.000000 0.000000 0.000000
-0.307946 -0.471249 0.029819 0.000000 0.000000 1.000000
0.062308 0.203849 -0.026887 0.000000 0.000000 1.000000
-0.140553 0.062973 -0.026720 0.000000 0.000000 1.000000
0.153744 -0.673668 0.029660 0.000000 0.000000 1.000000
-0.142545 0.795733 0.003536 1.000000 0.000000 0.000000
-0.214421 -0.326582 0.028082 1.000000 0.000000 0.000000
-0.205552 -0.233348 -0.026887 0.000000 0.000000 1.000000
-0.271212 0.682157 -0.026720 0.000000 0.000000 1.000000
0.433075 0.158140 0.036565 1.000000 0.000000 0.000000
-0.430429 -0.627659 0.028908 0.000000 0.000000 1.000000
-0.213613 -0.862484 -0.024538 1.000000 0.000000 0.000000
0.475171 0.167325 0.050252 1.000000 0.000000 0.000000
-0.179938 0.243001 0.030300 0.000000 0.000000 1.000000
0.157988 0.627920 -0.026887 0.000000 0.000000 1.000000
0.109539 0.795733 0.024497 1.000000 0.000000 0.000000
0.448389 0.678932 0.080702 1.000000 0.000000 0.000000
-0.234474 0.763377 0.080702 1.000000 0.000000 0.000000
0.140512 -0.258903 -0.026887 0.000000 0.000000 1.000000
-0.240462 0.702880 0.080306 1.000000 0.000000 0.000000
-0.435413 0.239635 -0.023347 0.000000 0.000000 1.000000
-0.298623 0.573533 -0.026887 0.000000 0.000000 1.000000
-0.107919 0.444445 -0.026791 0.000000 0.000000 1.000000
-0.061542 -0.002925 -0.026728 0.000000 0.000000 1.000000
-0.437454 0.063305 -0.005241 0.000000 0.000000 1.000000
-0.346332 0.035185 -0.026885 0.000000 0.000000 1.000000
-0.225144 0.053645 0.030431 0.000000 0.000000 1.000000
-0.240462 0.817726 -0.045448 1.000000 0.000000 0.000000
0.198166 -0.818467 0.017166 0.000000 0.000000 1.000000
-0.288645 -0.447988 -0.026887 0.000000 0.000000 1.000000
-0.437479 -0.373726 0.004993 0.000000 0.000000 1.000000
0.475171 -0.620916 -0.034568 1.000000 0.000000 0.000000
-0.309738 0.338661 -0.026885 0.000000 0.000000 1.000000
0.094461 -0.004297 0.030386 0.000000 0.000000 1.000000
0.433075 0.350656 0.051243 1.000000 0.000000 0.000000
-0.240462 -0.438725 0.078434 1.000000 0.000000 0.000000
0.024142 0.795733 -0.032297 1.000000 0.000000 0.000000
0.071272 0.497670 0.030319 0.000000 0.000000 1.000000
0.433075 -0.668570 -0.041087 1.000000 0.000000 0.000000
-0.411980 -0.779237 -0.026881 0.000000 0.000000 1.000000
0.214341 0.837829 0.025187 1.000000 0.000000 0.000000
-0.233560 0.245590 0.080702 1.000000 0.000000 0.000000
-0.226517 -0.613247 0.080702 1.000000 0.000000 0.000000
0.149033 0.795733 0.071229 1.000000 0.000000 0.000000
0.433075 -0.069231 -0.074630 1.000000 0.000000 0.000000
0.468004 0.161302 0.080702 1.000000 0.000000 0.000000
-0.432607 0.349619 -0.024640 0.000000 0.000000 1.000000
0.143098 0.623834 -0.026887 0.000000 0.000000 1.000000
0.085945 -0.192646 -0.026887 0.000000 0.000000 1.000000
0.116031 0.671997 -0.026886 0.000000 0.000000 1.000000
0.448913 -0.888110 -0.048890 1.000000 0.000000 0.000000
-0.133123 -0.456993 0.030431 0.000000 0.000000 1.000000
0.475171 -0.254198 -0.018240 1.000000 0.000000 0.000000
-0.413686 0.442071 -0.026881 0.000000 0.000000 1.000000
0.475171 0.800394 0.011750 1.000000 0.000000 0.000000
-0.214658 0.106967 0.080702 1.000000 0.000000 0.000000
-0.026802 -0.890454 0.001807 0.000000 0.000000 1.000000
-0.330631 -0.011075 -0.026887 0.000000 0.000000 1.000000
-0.083822 0.718669 0.030280 0.000000 0.000000 1.000000
-0.224077 -0.616918 0.030431 0.000000 0.000000 1.000000
-0.092593 -0.778086 0.029500 0.000000 0.000000 1.000000
-0.373197 0.385336 0.030428 0.000000 0.000000 1.000000
0.475171 0.230911 0.048102 1.000000 0.000000 0.000000
-0.353392 -0.571125 0.029936 0.000000 0.000000 1.000000
0.342199 0.837829 0.015626 1.000000 0.000000 0.000000
-0.032536 0.595903 0.030431 0.000000 0.000000 1.000000
0.475171 -0.807356 0.033491 1.000000 0.000000 0.000000
-0.152188 0.795733 0.066041 1.000000 0.000000 0.000000
-0.226836 -0.888110 -0.027252 1.000000 0.000000 0.000000
-0.198366 -0.451341 0.033115 1.000000 0.000000 0.000000
-0.198366 -0.879278 0.070423 1.000000 0.000000 0.000000
-0.398596 0.188134 -0.026886 0.000000 0.000000 1.000000
-0.207730 0.429317 -0.077158 1.000000 0.000000 0.000000
0.433075 0.190095 0.049473 1.000000 0.000000 0.000000
-0.304986 0.378249 -0.026887 0.000000 0.000000 1.000000
-0.320613 0.630082 -0.026887 0.000000 0.000000 1.000000
0.449950 -0.410376 -0.077158 1.000000 0.000000 0.000000
0.198555 0.410091 0.012134 0.000000 0.000000 1.000000
-0.177241 -0.591227 -0.026887 0.000000 0.000000 1.000000
-0.240462 -0.393172 -0.063413 1.000000 0.000000 0.000000
-0.173396 0.515059 -0.026720 0.000000 0.000000 1.000000
-0.394196 0.086973 -0.026887 0.000000 0.000000 1.000000
-0.240462 -0.415681 0.056393 1.000000 0.000000 0.000000
-0.266560 -0.727643 -0.026887 0.000000 0.000000 1.000000
-0.098923 -0.494852 0.030431 0.000000 0.000000 1.000000
-0.019690 -0.227548 -0.026887 0.000000 0.000000 1.000000
-0.019072 -0.410883 -0.026887 0.000000 0.000000 1.000000
-0.072169 -0.469845 0.030431 0.000000 0.000000 1.000000
-0.388269 0.102688 0.030430 0.000000 0.000000 1.000000
-0.036767 0.837829 -0.072149 1.000000 0.000000 0.000000
-0.240462 -0.087172 -0.074443 1.000000 0.000000 0.000000
-0.201345 -0.312836 -0.024538 1.000000 0.000000 0.000000
-0.437261 -0.550822 0.018003 0.000000 0.000000 1.000000
0.475171 0.092610 -0.006670 1.000000 0.000000 0.000000
-0.198366 0.336133 0.039549 1.000000 0.000000 0.000000
-0.162326 0.332872 0.029676 0.000000 0.000000 1.000000
-0.381000 0.795466 -0.019314 0.000000 0.000000 1.000000
-0.240462 -0.380932 0.037387 1.000000 0.000000 0.000000
-0.230474 0.464912 0.030431 0.000000 0.000000 1.000000
-0.261488 -0.650385 -0.026887 0.000000 0.000000 1.000000
-0.240462 0.519220 0.038655 1.000000 0.000000 0.000000
-0.240462 -0.280803 0.038980 1.000000 0.000000 0.000000
0.433075 -0.276057 -0.058389 1.000000 0.000000 0.000000
0.433075 -0.426203 0.001737 1.000000 0.000000 0.000000
-0.217086 -0.698808 0.080702 1.000000 0.000000 0.000000
-0.240462 0.672448 0.078094 1.000000 0.000000 0.000000
0.195930 0.589616 0.027123 0.000000 0.000000 1.000000
0.131528 0.060862 0.030257 0.000000 0.000000 1.000000
0.433075 -0.008304 0.056416 1.000000 0.000000 0.000000
-0.192744 -0.009283 0.030425 0.000000 0.000000 1.000000
-0.240462 0.248559 -0.033805 1.000000 0.000000 0.000000
-0.240462 -0.732790 -0.064381 1.000000 0.000000 0.000000
-0.244058 0.749452 -0.026887 0.000000 0.000000 1.000000
0.475171 -0.004318 -0.067026 1.000000 0.000000 0.000000
-0.180314 -0.746365 0.029523 0.000000 0.000000 1.000000
0.305410 0.795733 0.075589 1.000000 0.000000 0.000000
-0.033078 -0.766552 0.029437 0.000000 0.000000 1.000000
0.159905 0.724996 0.030429 0.000000 0.000000 1.000000
-0.198366 -0.350112 0.040770 1.000000 0.000000 0.000000
-0.065206 -0.535816 0.030431 0.000000 0.000000 1.000000
-0.240462 0.659425 0.055984 1.000000 0.000000 0.000000
-0.248581 -0.732973 -0.026887 0.000000 0.000000 1.000000
0.233139 0.837829 -0.045617 1.000000 0.000000 0.000000
0.433075 0.511293 -0.047880 1.000000 0.000000 0.000000
0.475171 -0.752026 0.039313 1.000000 0.000000 0.000000
0.458913 -0.886161 0.080702 1.000000 0.000000 0.000000
-0.001869 0.795733 0.048868 1.000000 0.000000 0.000000
0.094755 0.192888 0.029898 0.000000 0.000000 1.000000
0.433075 -0.745220 -0.029940 1.000000 0.000000 0.000000
-0.198366 -0.401451 0.059776 1.000000 0.000000 0.000000
0.041464 0.009467 -0.026887 0.000000 0.000000 1.000000
-0.224232 -0.440372 0.029658 0.000000 0.000000 1.000000
-0.360944 0.092714 -0.026885 0.000000 0.000000 1.000000
-0.286566 -0.847454 0.030431 0.000000 0.000000 1.000000
0.025265 -0.597772 -0.026887 0.000000 0.000000 1.000000
-0.411382 -0.250817 -0.026881 0.000000 0.000000 1.000000
-0.240462 0.166037 0.036957 1.000000 0.000000 0.000000
-0.123985 0.420061 -0.026849 0.000000 0.000000 1.000000
-0.209161 -0.385593 0.028082 1.000000 0.000000 0.000000
-0.305442 0.513162 -0.026887 0.000000 0.000000 1.000000
-0.235922 -0.606890 -0.077158 1.000000 0.000000 0.000000
-0.437446 0.463147 0.010031 0.000000 0.000000 1.000000
-0.198366 -0.815434 0.044510 1.000000 0.000000 0.000000
0.197194 -0.365050 0.026078 0.000000 0.000000 1.000000
-0.333015 -0.495651 0.030170 0.000000 0.000000 1.000000
0.475171 0.135085 0.049783 1.000000 0.000000 0.000000
-0.181675 0.484875 -0.026772 0.000000 0.000000 1.000000
0.060278 -0.222799 0.030171 0.000000 0.000000 1.000000
-0.232818 0.415286 -0.077158 1.000000 0.000000 0.000000
-0.217011 -0.890368 0.009527 0.000000 0.000000 1.000000
-0.175426 0.806867 0.080702 1.000000 0.000000 0.000000
-0.198366 -0.277311 -0.026963 1.000000 0.000000 0.000000
-0.198366 0.628018 -0.043181 1.000000 0.000000 0.000000
0.433075 -0.220593 0.064231 1.000000 0.000000 0.000000
-0.227895 0.789758 0.028082 1.000000 0.000000 0.000000
0.010063 0.810382 0.080702 1.000000 0.000000 0.000000
0.433075 -0.485850 0.035221 1.000000 0.000000 0.000000
0.041809 -0.024164 0.030431 0.000000 0.000000 1.000000
-0.151848 -0.713475 0.029470 0.000000 0.000000 1.000000
-0.421504 -0.386504 -0.026676 0.000000 0.000000 1.000000
0.020675 0.093396 -0.026887 0.000000 0.000000 1.000000
-0.046950 -0.494595 0.030431 0.000000 0.000000 1.000000
-0.194227 -0.591002 0.030431 0.000000 0.000000 1.000000
-0.422895 0.734819 0.030134 0.000000 0.000000 1.000000
0.011543 0.451228 0.030431 0.000000 0.000000 1.000000
-0.240462 -0.732242 -0.040447 1.000000 0.000000 0.000000
-0.136141 -0.886720 0.025539 0.000000 0.000000 1.000000
-0.234707 0.639841 0.028082 1.000000 0.000000 0.000000
-0.198366 0.470848 -0.052443 1.000000 0.000000 0.000000
-0.240462 -0.846684 -0.028524 1.000000 0.000000 0.000000
0.435191 0.207679 -0.077158 1.000000 0.000000 0.000000
0.181477 0.837829 -0.065848 1.000000 0.000000 0.000000
-0.198366 -0.172178 -0.053540 1.000000 0.000000 0.000000
-0.008899 -0.504854 0.030431 0.000000 0.000000 1.000000
-0.151579 -0.601633 0.030431 0.000000 0.000000 1.000000
0.433075 0.471248 -0.043307 1.000000 0.000000 0.000000
0.061762 -0.574276 -0.026887 0.000000 0.000000 1.000000
0.178091 0.168896 0.030368 0.000000 0.000000 1.000000
0.475171 -0.621390 0.077750 1.000000 0.000000 0.000000
0.433075 -0.483086 -0.066332 1.000000 0.000000 0.000000
-0.198366 -0.807963 -0.039242 1.000000 0.000000 0.000000
-0.105488 -0.747794 0.030160 0.000000 0.000000 1.000000
0.054812 0.163870 0.029664 0.000000 0.000000 1.000000
0.026919 0.708188 0.029929 0.000000 0.000000 1.000000
-0.198366 -0.496844 0.035663 1.000000 0.000000 0.000000
0.007311 0.334077 0.030096 0.000000 0.000000 1.000000
0.475171 -0.076615 -0.062157 1.000000 0.000000 0.000000
0.475171 0.045329 -0.072934 1.000000 0.000000 0.000000
0.036362 -0.109219 0.029813 0.000000 0.000000 1.000000
0.433075 -0.640520 -0.043456 1.000000 0.000000 0.000000
0.164261 -0.444952 0.029537 0.000000 0.000000 1.000000
0.433075 0.178565 -0.075714 1.000000 0.000000 0.000000
0.110031 -0.870736 -0.026655 0.000000 0.000000 1.000000
-0.017591 0.695043 0.030180 0.000000 0.000000 1.000000
0.175894 0.592132 0.030422 0.000000 0.000000 1.000000
-0.063674 -0.237844 -0.026887 0.000000 0.000000 1.000000
-0.198366 0.473396 0.080000 1.000000 0.000000 0.000000
-0.144935 -0.287117 0.030431 0.000000 0.000000 1.000000
-0.051656 -0.081844 0.030097 0.000000 0.000000 1.000000
-0.319775 -0.658735 -0.026887 0.000000 0.000000 1.000000
0.475171 0.604778 0.029189 1.000000 0.000000 0.000000
0.475171 0.572542 -0.052371 1.000000 0.000000 0.000000
0.433075 -0.693190 -0.000042 1.000000 0.000000 0.000000
-0.198366 0.539443 -0.056937 1.000000 0.000000 0.000000
-0.011246 -0.215451 -0.026887 0.000000 0.000000 1.000000
-0.198366 -0.788848 0.078222 1.000000 0.000000 0.000000
0.475171 0.598594 0.002697 1.000000 0.000000 0.000000
-0.379292 -0.180239 0.030046 0.000000 0.000000 1.000000
-0.198366 -0.755899 0.065093 1.000000 0.000000 0.000000
0.433075 -0.153382 -0.004992 1.000000 0.000000 0.000000
0.216513 0.795733 -0.062774 1.000000 0.000000 0.000000
-0.240462 0.010631 -0.031738 1.000000 0.000000 0.000000
0.460137 -0.793264 -0.077158 1.000000 0.000000 0.000000
-0.402114 -0.070136 0.029760 0.000000 0.000000 1.000000
-0.198366 0.758525 -0.064553 1.000000 0.000000 0.000000
0.009298 0.677256 0.030214 0.000000 0.000000 1.000000
0.390078 0.837829 0.001579 1.000000 0.000000 0.000000
0.475171 -0.695139 0.042227 1.000000 0.000000 0.000000
-0.409870 -0.483128 -0.026882 0.000000 0.000000 1.000000
0.475171 0.762115 0.031149 1.000000 0.000000 0.000000
0.433075 0.557538 0.039984 1.000000 0.000000 0.000000
-0.436306 -0.037545 0.024938 0.000000 0.000000 1.000000
0.116839 -0.397483 -0.026886 0.000000 0.000000 1.000000
0.433075 -0.148858 0.056887 1.000000 0.000000 0.000000
0.475171 0.559259 -0.045771 1.000000 0.000000 0.000000
-0.083825 0.501444 0.030263 0.000000 0.000000 1.000000
0.475171 0.118637 0.077660 1.000000 0.000000 0.000000
-0.240462 0.234287 0.044879 1.000000 0.000000 0.000000
0.433075 0.000659 0.070047 1.000000 0.000000 0.000000
-0.198366 -0.720368 -0.037400 1.000000 0.000000 0.000000
-0.240462 -0.575211 0.070781 1.000000 0.000000 0.000000
0.169447 -0.465819 0.029626 0.000000 0.000000 1.000000
0.053859 -0.563972 0.030431 0.000000 0.000000 1.000000
-0.076870 -0.391479 -0.026887 0.000000 0.000000 1.000000
-0.436362 0.551433 0.024532 0.000000 0.000000 1.000000
-0.240462 -0.448618 -0.041532 1.000000 0.000000 0.000000
-0.229916 0.797652 -0.010509 0.000000 0.000000 1.000000
0.433075 0.374579 0.059262 1.000000 0.000000 0.000000
-0.055805 0.495298 0.029954 0.000000 0.000000 1.000000
0.198530 0.529145 -0.011745 0.000000 0.000000 1.000000
-0.139590 -0.274186 -0.026887 0.000000 0.000000 1.000000
-0.043682 -0.320867 0.030257 0.000000 0.000000 1.000000
-0.240462 0.804848 0.039308 1.000000 0.000000 0.000000
-0.397957 0.039668 -0.026887 0.000000 0.000000 1.000000
0.347571 0.795733 0.061881 1.000000 0.000000 0.000000
-0.356777 0.234059 0.030429 0.000000 0.000000 1.000000
0.197731 -0.611916 0.021145 0.000000 0.000000 1.000000
0.088764 0.242383 -0.026887 0.000000 0.000000 1.000000
0.475171 0.731098 0.053123 1.000000 0.000000 0.000000
-0.422803 -0.706661 0.029694 0.000000 0.000000 1.000000
-0.172917 0.006048 0.030264 0.000000 0.000000 1.000000
0.471613 -0.726184 0.080702 1.000000 0.000000 0.000000
0.057024 0.837829 -0.025434 1.000000 0.000000 0.000000
0.178042 0.837829 0.048952 1.000000 0.000000 0.000000
-0.033918 -0.180453 0.030032 0.000000 0.000000 1.000000
-0.003897 -0.431321 0.030038 0.000000 0.000000 1.000000
0.433075 0.305476 -0.030657 1.000000 0.000000 0.000000
-0.208668 0.679368 0.080702 1.000000 0.000000 0.000000
0.448465 0.591932 0.080702 1.000000 0.000000 0.000000
-0.094154 0.155854 -0.026720 0.000000 0.000000 1.000000
0.433075 -0.556883 -0.037452 1.000000 0.000000 0.000000
-0.285442 0.679752 -0.026743 0.000000 0.000000 1.000000
-0.169343 -0.637195 0.030430 0.000000 0.000000 1.000000
0.475171 0.643574 0.058987 1.000000 0.000000 0.000000
-0.010006 0.428331 -0.026887 0.000000 0.000000 1.000000
0.159184 0.100978 -0.026886 0.000000 0.000000 1.000000
0.475171 0.255072 0.025646 1.000000 0.000000 0.000000
0.101739 0.348858 0.030261 0.000000 0.000000 1.000000
-0.437389 -0.489329 0.017079 0.000000 0.000000 1.000000
-0.436794 0.510514 0.021401 0.000000 0.000000 1.000000
-0.018701 -0.020558 0.030431 0.000000 0.000000 1.000000
-0.216585 0.664790 0.028082 1.000000 0.000000 0.000000
0.393207 0.796180 0.080702 1.000000 0.000000 0.000000
-0.067274 -0.139533 -0.026887 0.000000 0.000000 1.000000
-0.231142 -0.499920 -0.077158 1.000000 0.000000 0.000000
0.437869 0.771846 0.080702 1.000000 0.000000 0.000000
0.198586 0.240178 0.007678 0.000000 0.000000 1.000000
0.475171 -0.188190 -0.002794 1.000000 0.000000 0.000000
-0.240462 0.819330 0.035636 1.000000 0.000000 0.000000
0.012333 -0.814709 0.029430 0.000000 0.000000 1.000000
0.349045 0.830447 -0.077158 1.000000 0.000000 0.000000
0.003907 -0.031455 -0.026887 0.000000 0.000000 1.000000
0.198216 0.638761 0.012587 0.000000 0.000000 1.000000
-0.212320 0.601232 0.029943 0.000000 0.000000 1.000000
-0.096836 0.607122 -0.026720 0.000000 0.000000 1.000000
0.435503 -0.881483 -0.077158 1.000000 0.000000 0.000000
0.055247 -0.368815 0.029577 0.000000 0.000000 1.000000
0.475171 -0.470362 -0.036258 1.000000 0.000000 0.000000
-0.348440 0.347093 0.030329 0.000000 0.000000 1.000000
0.475171 -0.163816 -0.068461 1.000000 0.000000 0.000000
0.146478 -0.029946 0.029971 0.000000 0.000000 1.000000
0.475171 0.556593 -0.009783 1.000000 0.000000 0.000000
-0.198366 -0.201297 -0.071202 1.000000 0.000000 0.000000
-0.198366 0.103239 -0.033976 1.000000 0.000000 0.000000
-0.007956 0.014858 0.030431 0.000000 0.000000 1.000000
-0.437449 -0.766271 -0.005895 0.000000 0.000000 1.000000
0.065609 0.714963 0.029657 0.000000 0.000000 1.000000
0.433075 -0.012914 -0.073740 1.000000 0.000000 0.000000
-0.365741 0.222097 0.030429 0.000000 0.000000 1.000000
0.475171 -0.843253 -0.025237 1.000000 0.000000 0.000000
0.043516 0.298455 -0.026886 0.000000 0.000000 1.000000
-0.198366 0.433081 -0.051935 1.000000 0.000000 0.000000
-0.272408 0.347878 0.029923 0.000000 0.000000 1.000000
0.475171 0.390883 0.079367 1.000000 0.000000 0.000000
0.475171 0.112045 -0.048240 1.000000 0.000000 0.000000
