ply
format ascii 1.0
element vertex 1264
property float x
property float y
property float z
property uchar red
property uchar green
property uchar blue
end_header
-0.360405 0.385946 -0.465629 153 0 76
0.420557 -0.047720 0.044700 153 0 76
-0.378024 0.369456 0.334855 127 127 0
-0.295871 0.720190 0.159986 153 0 76
-0.343359 -0.520212 0.389429 0 127 127
-0.036428 -0.739014 0.334855 0 127 127
0.199268 0.206425 0.417440 0 127 127
-0.438293 0.448891 -0.337584 153 0 76
0.007778 -0.184931 -0.465629 153 0 76
-0.316036 0.476379 0.396689 127 127 0
0.375004 0.720190 -0.371185 153 0 76
0.420557 -0.577035 -0.462351 153 0 76
0.316086 -0.653198 0.334855 0 127 127
-0.123701 -0.764039 -0.388879 153 0 76
0.140986 -0.447611 0.334855 0 127 127
0.219392 0.540275 0.413906 127 127 0
-0.130044 -0.764039 -0.035104 153 0 76
-0.023930 -0.009123 0.421525 0 127 127
0.091526 -0.502447 0.421525 0 127 127
-0.438293 0.581881 0.268660 153 0 76
0.396673 -0.764039 -0.101108 153 0 76
0.289910 0.143530 -0.465629 153 0 76
0.180024 -0.215464 0.420234 0 127 127
-0.414958 -0.313270 0.367530 0 127 127
-0.438293 0.689680 0.278127 153 0 76
-0.422432 0.131170 0.365076 0 127 127
-0.438293 -0.093862 0.351219 0 127 127
0.420557 -0.325582 -0.374369 153 0 76
0.420557 0.693984 -0.226291 153 0 76
-0.101498 0.279019 0.394684 127 127 0
0.165575 -0.598366 0.421525 0 127 127
0.208608 0.011807 0.416084 0 127 127
-0.438293 -0.484977 -0.128129 153 0 76
0.083801 -0.162412 0.334855 0 127 127
0.052070 -0.589407 0.334855 0 127 127
-0.438293 -0.384668 -0.330283 153 0 76
0.022373 0.405445 0.334855 127 127 0
-0.297509 0.507873 0.391042 127 127 0
-0.438293 -0.046919 0.094896 153 0 76
-0.084285 -0.764039 0.017607 153 0 76
0.268211 0.650466 0.403917 127 127 0
-0.438293 -0.163889 -0.345380 153 0 76
0.118556 0.248460 -0.465629 153 0 76
0.104360 0.083000 -0.465629 153 0 76
0.193335 0.154951 0.334855 0 127 127
0.214437 0.253008 0.414920 127 127 0
0.072357 0.576492 0.334855 127 127 0
0.290188 0.392056 0.398837 127 127 0
0.253630 0.720190 0.069175 153 0 76
-0.360476 0.022232 0.334855 0 127 127
0.420557 0.240436 -0.421881 153 0 76
0.420557 -0.073235 -0.232591 153 0 76
0.420557 -0.409781 0.020107 153 0 76
-0.083000 0.720190 -0.026640 153 0 76
-0.438293 -0.735813 0.231553 153 0 76
-0.438293 -0.748365 -0.192317 153 0 76
0.013746 0.132092 -0.465629 153 0 76
-0.438293 0.609216 -0.153122 153 0 76
0.259706 -0.478673 0.334855 0 127 127
0.342183 -0.459639 0.385032 0 127 127
-0.438293 -0.523058 -0.422108 153 0 76
-0.438293 -0.425081 0.179316 153 0 76
0.377993 0.418051 -0.465629 153 0 76
0.191705 -0.764039 0.041434 153 0 76
-0.283696 0.720190 0.126776 153 0 76
0.090913 -0.764039 -0.044205 153 0 76
-0.278457 0.628175 -0.465629 153 0 76
-0.394472 0.214714 0.334855 0 127 127
-0.265190 0.236441 -0.465629 153 0 76
-0.190391 0.337274 0.433833 127 0 127
-0.438293 0.388218 0.191415 153 0 76
0.418863 -0.680663 0.360426 0 127 127
-0.438293 -0.586989 0.301893 153 0 76
-0.365620 -0.005413 -0.465629 153 0 76
0.360050 -0.764039 0.106157 153 0 76
-0.438293 0.126530 0.154004 153 0 76
0.420557 0.131387 0.231165 153 0 76
-0.067310 0.480555 0.334855 127 127 0
-0.042704 -0.155747 -0.465629 153 0 76
-0.438293 -0.271892 -0.397361 153 0 76
-0.438293 -0.231838 -0.298053 153 0 76
-0.436532 -0.764039 0.032441 153 0 76
-0.438293 0.662890 -0.464362 153 0 76
-0.438293 0.570358 0.060299 153 0 76
0.316537 0.281642 0.391841 127 127 0
-0.438293 0.021952 -0.042189 153 0 76
0.238605 0.115155 0.334855 0 127 127
-0.002522 0.355881 -0.465629 153 0 76
-0.438293 -0.419484 -0.289272 153 0 76
-0.097308 -0.354422 -0.465629 153 0 76
0.169195 -0.211100 -0.465629 153 0 76
-0.359614 0.281559 0.385113 127 127 0
-0.361201 -0.440630 0.334855 0 127 127
-0.376597 -0.764039 0.022339 153 0 76
-0.046149 0.238922 -0.465629 153 0 76
0.410891 0.658224 0.334855 127 127 0
0.175669 0.127021 0.420866 0 127 127
-0.100801 0.164911 -0.465629 153 0 76
0.420557 0.432195 -0.380091 153 0 76
0.420557 0.316323 -0.095393 153 0 76
-0.246620 -0.437637 0.334855 0 127 127
0.240499 0.336672 0.334855 127 127 0
-0.270979 -0.593437 -0.465629 153 0 76
-0.354405 0.339387 -0.465629 153 0 76
-0.355347 0.066268 -0.465629 153 0 76
-0.340245 -0.052548 0.334855 0 127 127
-0.103648 -0.120369 0.334855 0 127 127
-0.139611 -0.550491 0.421525 0 127 127
-0.438293 0.155096 -0.139002 153 0 76
-0.341004 -0.360150 0.334855 0 127 127
0.314563 -0.764039 0.285222 0 127 127
-0.354909 -0.783923 -0.461433 153 0 76
-0.438293 0.440338 -0.262244 153 0 76
0.306826 -0.701731 -0.465629 153 0 76
0.420557 -0.001954 -0.380292 153 0 76
-0.238848 -0.182640 0.334855 0 127 127
-0.438293 0.669607 0.225803 153 0 76
-0.117741 0.436067 0.334855 127 127 0
-0.138656 0.315806 0.421525 127 127 0
0.349453 0.562346 -0.465629 153 0 76
-0.438293 0.144336 0.063972 153 0 76
-0.177061 0.109328 -0.465629 153 0 76
0.083925 -0.745666 0.421525 0 127 127
0.208371 -0.554859 0.416118 0 127 127
-0.140239 0.720190 -0.306162 153 0 76
0.116467 0.657882 -0.465629 153 0 76
-0.362210 -0.692619 0.384424 0 127 127
0.367162 0.442385 0.377398 127 127 0
-0.372395 0.720190 -0.104806 153 0 76
0.129697 -0.764039 0.271029 153 0 76
-0.116093 -0.658632 0.421525 0 127 127
0.420557 -0.186377 -0.414760 153 0 76
0.342113 -0.764039 0.005290 153 0 76
-0.297871 0.630505 0.391159 127 127 0
0.399864 -0.764039 -0.399937 127 0 127
-0.177113 0.026385 0.334855 0 127 127
0.420557 -0.191200 -0.134798 153 0 76
-0.084609 -0.417797 -0.465629 153 0 76
0.420557 0.623934 -0.231187 153 0 76
-0.438293 -0.291052 -0.335553 153 0 76
-0.438293 0.452342 0.035927 153 0 76
-0.438293 0.446842 0.207025 153 0 76
-0.438293 0.597239 0.162938 153 0 76
-0.438293 0.715626 0.327416 153 0 76
0.194598 0.197418 -0.465629 153 0 76
0.020053 -0.764039 0.414296 0 127 127
0.420557 0.422282 -0.309240 153 0 76
0.266567 -0.339090 -0.465629 153 0 76
0.420557 0.027019 0.053669 153 0 76
-0.177290 -0.230070 -0.465629 153 0 76
-0.245240 0.720190 -0.443011 153 0 76
-0.438293 -0.061859 -0.391798 153 0 76
0.141777 -0.254005 0.421525 0 127 127
0.420557 0.090884 -0.307594 153 0 76
-0.398597 -0.198921 -0.465629 153 0 76
-0.414297 0.252055 0.367747 0 127 127
0.420557 -0.593714 -0.287494 153 0 76
-0.199520 -0.529099 0.411006 0 127 127
0.094056 -0.141642 0.421525 0 127 127
-0.310746 0.720190 -0.286567 153 0 76
-0.379316 -0.103918 0.379230 0 127 127
0.420557 -0.048899 0.170431 153 0 76
0.091309 0.720190 -0.337694 153 0 76
-0.374184 0.127715 -0.465629 153 0 76
0.180674 0.151826 -0.465629 153 0 76
-0.059739 -0.764039 -0.419926 153 0 76
-0.438293 0.262876 -0.090702 153 0 76
0.267166 0.398899 0.334855 127 127 0
-0.331185 -0.764039 -0.372970 153 0 76
0.012516 0.720190 -0.005470 153 0 76
-0.129711 -0.434405 0.421525 0 127 127
-0.074408 -0.764039 0.377397 153 0 76
-0.015345 0.343861 0.421525 127 127 0
-0.258050 -0.584150 0.334855 0 127 127
-0.225542 0.388825 -0.465629 153 0 76
-0.438293 0.469381 -0.392469 153 0 76
-0.104848 0.379623 0.334855 127 127 0
0.420557 -0.304163 -0.346088 153 0 76
-0.286091 -0.764039 0.086155 153 0 76
-0.023622 0.542833 0.334855 127 127 0
-0.024516 0.044863 -0.465629 153 0 76
0.245177 0.066507 0.408630 0 127 127
0.193883 -0.764039 0.282111 153 0 76
-0.203322 -0.462100 0.407841 0 127 127
-0.438293 -0.306266 0.107658 153 0 76
-0.438293 0.352045 0.169357 153 0 76
-0.110283 0.720190 0.131525 153 0 76
0.250250 -0.764039 0.318925 0 127 127
0.211116 -0.558623 -0.465629 153 0 76
-0.079123 0.438580 0.334855 127 127 0
0.420557 -0.697298 0.100164 153 0 76
-0.134830 -0.074530 -0.465629 153 0 76
-0.250244 0.316215 -0.465629 153 0 76
0.369340 -0.546776 -0.465629 153 0 76
-0.438293 0.488877 -0.168314 153 0 76
0.085928 -0.297965 0.421525 0 127 127
0.220341 -0.764039 -0.105597 153 0 76
-0.056931 -0.400821 -0.465629 153 0 76
0.420557 0.467907 -0.041316 153 0 76
0.420557 -0.056388 0.227071 153 0 76
0.411369 0.720190 -0.180099 153 0 76
0.420557 -0.188392 -0.369029 153 0 76
0.381191 -0.436770 -0.465629 153 0 76
0.347795 -0.625126 0.383542 0 127 127
-0.338323 -0.634890 0.390766 0 127 127
-0.373657 0.720190 0.271865 153 0 76
-0.378694 0.720190 0.341145 153 0 76
-0.438293 0.597555 0.037437 153 0 76
0.093983 0.161855 0.421525 0 127 127
-0.131579 0.471107 -0.465629 153 0 76
0.420557 -0.646002 0.305129 153 0 76
0.254786 -0.666755 0.406664 0 127 127
-0.080513 0.218146 0.334855 0 127 127
0.206075 -0.474446 0.416452 0 127 127
-0.438293 0.195805 0.117058 153 0 76
-0.287847 -0.151690 0.334855 0 127 127
0.104063 0.426343 -0.465629 153 0 76
-0.029124 0.720190 0.157183 153 0 76
-0.438293 0.353396 0.133242 153 0 76
-0.306937 -0.738224 0.334855 0 127 127
-0.056657 -0.347539 0.334855 0 127 127
-0.409656 -0.777399 -0.465629 153 0 76
0.255682 -0.764039 -0.370686 153 0 76
0.420557 -0.128451 -0.271587 153 0 76
-0.125259 -0.637935 -0.465629 153 0 76
0.420557 0.442821 0.051785 153 0 76
0.420557 0.510631 0.009946 153 0 76
0.261525 0.279019 0.369292 0 127 127
-0.415311 -0.715630 0.334855 0 127 127
-0.412942 -0.216851 0.334855 0 127 127
-0.018445 0.280923 0.421525 127 127 0
-0.438293 -0.295077 -0.045430 153 0 76
-0.158812 0.588808 -0.465629 153 0 76
0.251575 -0.536894 -0.465629 153 0 76
-0.438293 0.083134 -0.236962 153 0 76
0.033537 0.437093 0.421525 127 127 0
-0.438293 -0.039437 0.208440 153 0 76
0.387324 -0.371276 -0.465629 153 0 76
-0.405211 -0.320458 -0.465629 153 0 76
0.096344 -0.099521 -0.465629 153 0 76
-0.264268 -0.326496 0.386136 0 127 127
-0.177267 -0.764039 -0.428019 153 0 76
-0.438293 0.356936 -0.041922 153 0 76
-0.438293 -0.347682 -0.087308 153 0 76
-0.296901 -0.027757 -0.465629 153 0 76
0.016683 0.016354 -0.465629 153 0 76
0.420557 0.071651 -0.163166 153 0 76
-0.438293 -0.237531 0.345397 153 0 76
-0.438293 0.509437 -0.271580 153 0 76
-0.323842 0.195486 0.334855 0 127 127
0.290773 0.720190 -0.000821 153 0 76
0.420557 -0.090622 -0.190562 153 0 76
0.420557 0.531647 -0.032234 153 0 76
-0.393899 -0.764039 0.310023 0 127 127
-0.137093 0.172061 0.334855 0 127 127
0.122067 0.279019 0.400091 127 127 0
-0.109288 0.720190 0.386371 127 127 0
0.403897 0.444705 0.365339 127 127 0
-0.338853 -0.764039 -0.209538 153 0 76
-0.120460 -0.764039 0.082647 153 0 76
-0.438293 0.631319 0.091903 153 0 76
-0.438293 -0.444982 -0.017540 153 0 76
-0.109066 0.720190 -0.255495 153 0 76
0.217640 -0.264073 -0.465629 153 0 76
-0.344206 0.650653 0.334855 127 127 0
-0.122042 0.720190 0.214685 153 0 76
-0.019767 -0.763679 -0.465629 153 0 76
-0.318588 0.720190 0.040859 153 0 76
0.237947 0.516999 0.334855 127 127 0
0.208782 -0.209197 0.334855 0 127 127
-0.051335 0.720190 0.033465 153 0 76
-0.367234 0.275302 -0.465629 153 0 76
0.420557 0.050702 -0.397493 153 0 76
-0.286903 0.720190 -0.025717 153 0 76
0.420557 -0.040205 -0.039613 153 0 76
0.420557 -0.313410 -0.093035 153 0 76
0.261360 0.218627 0.405318 0 127 127
-0.277438 -0.176593 -0.465629 153 0 76
-0.208215 -0.609132 0.404240 0 127 127
-0.322390 0.072092 0.334855 0 127 127
-0.438293 -0.507257 0.061378 153 0 76
0.192651 -0.684632 -0.465629 153 0 76
-0.075627 0.600027 0.421525 127 127 0
-0.332446 0.720190 0.222353 153 0 76
-0.438293 0.295559 -0.201707 153 0 76
0.048344 -0.687600 -0.465629 153 0 76
0.240437 -0.764039 -0.258735 153 0 76
-0.084528 -0.681729 -0.465629 153 0 76
-0.438293 0.243434 -0.261550 153 0 76
0.420557 0.676396 -0.024320 153 0 76
0.420557 0.676284 -0.143543 153 0 76
-0.438293 -0.478828 -0.312408 153 0 76
-0.411990 0.342127 -0.465629 153 0 76
-0.019268 0.720190 -0.009815 153 0 76
-0.190126 0.168741 0.420212 0 127 127
0.065326 -0.223498 0.421525 0 127 127
-0.328790 0.720190 -0.356668 153 0 76
-0.438293 -0.034827 -0.019959 153 0 76
0.420557 0.031520 0.196176 153 0 76
0.420557 -0.493668 -0.314781 153 0 76
-0.438293 -0.397420 -0.045195 153 0 76
-0.140146 -0.112116 -0.465629 153 0 76
-0.438293 0.283534 0.176601 153 0 76
0.420557 -0.608838 0.191379 153 0 76
-0.438293 0.342909 -0.164474 153 0 76
-0.042104 0.170908 0.334855 0 127 127
0.319237 0.498358 0.334855 127 127 0
0.410245 0.720190 0.165728 153 0 76
-0.438293 -0.600718 -0.268500 153 0 76
-0.438293 0.035890 -0.258404 153 0 76
-0.438293 -0.701429 -0.150884 153 0 76
-0.237117 0.567505 0.334855 127 127 0
-0.438293 0.297535 0.131346 153 0 76
-0.438293 0.114651 -0.217377 153 0 76
0.420557 -0.097039 0.210939 153 0 76
0.193244 0.518529 -0.465629 153 0 76
0.309058 -0.712749 0.334855 0 127 127
-0.037929 0.001815 0.334855 0 127 127
0.420557 0.200760 -0.421938 153 0 76
-0.199276 -0.093883 -0.465629 153 0 76
0.161591 -0.664698 0.334855 0 127 127
0.420557 0.086165 0.023939 153 0 76
-0.438293 -0.118316 0.175175 153 0 76
-0.421107 -0.251643 -0.465629 153 0 76
0.318574 0.671259 0.334855 127 127 0
0.387275 0.556371 0.370795 127 127 0
-0.316088 0.720190 0.104686 153 0 76
0.325975 -0.382804 0.334855 0 127 127
0.136757 0.483646 0.334855 127 127 0
-0.410978 0.138576 -0.465629 153 0 76
-0.125866 0.720190 -0.136376 153 0 76
-0.028537 0.481605 0.334855 127 127 0
-0.324899 -0.112657 0.394330 0 127 127
0.398844 -0.513459 0.334855 0 127 127
0.312596 0.370112 0.392888 127 127 0
0.420557 -0.078093 -0.083774 153 0 76
0.266036 0.720190 0.403223 127 127 0
0.097046 0.720190 -0.077617 153 0 76
0.387502 0.619855 0.370721 127 127 0
-0.127005 -0.509757 -0.465629 153 0 76
0.130906 0.720190 0.335949 153 0 76
0.395812 -0.409743 0.334855 0 127 127
0.335823 -0.317816 0.386721 0 127 127
0.420557 0.380509 -0.282638 153 0 76
-0.330185 -0.170946 0.392927 0 127 127
0.211036 0.333047 -0.465629 153 0 76
0.140478 -0.764039 -0.089185 153 0 76
0.420557 -0.653146 0.060576 153 0 76
0.420557 -0.633168 0.013621 153 0 76
0.420557 -0.728608 -0.048420 153 0 76
-0.438293 0.508100 0.212982 153 0 76
0.417985 0.598283 0.360714 127 127 0
-0.277768 -0.033658 0.334855 0 127 127
-0.375410 -0.372266 0.334855 0 127 127
-0.438293 -0.123564 -0.275101 153 0 76
-0.062230 0.720190 -0.164336 153 0 76
0.420557 -0.535387 -0.388645 153 0 76
-0.262212 0.064973 0.334855 0 127 127
-0.251853 0.427918 0.334855 127 127 0
0.333991 -0.031574 0.387207 0 127 127
0.156306 -0.268729 0.334855 0 127 127
0.420557 0.149348 0.158030 153 0 76
0.137804 -0.540349 0.334855 0 127 127
0.395686 0.699067 0.334855 127 127 0
-0.191295 0.720190 -0.018976 153 0 76
-0.438293 0.521775 -0.377635 153 0 76
0.328621 -0.678513 -0.465629 153 0 76
0.137584 -0.506026 -0.465629 153 0 76
-0.124779 0.689478 -0.465629 153 0 76
-0.090568 0.720190 0.156523 153 0 76
-0.438293 0.379471 0.024878 153 0 76
0.325422 0.254946 0.334855 0 127 127
0.054507 -0.764039 0.192658 153 0 76
0.397202 0.121696 0.334855 0 127 127
0.326573 0.442763 0.334855 127 127 0
-0.151260 -0.407829 0.334855 0 127 127
-0.080739 -0.764039 0.113047 153 0 76
0.040626 0.522205 0.334855 127 127 0
-0.429134 -0.046535 0.362876 0 127 127
-0.237955 -0.223704 0.390064 0 127 127
-0.230553 -0.044390 0.392578 0 127 127
0.054650 0.279019 0.354423 0 127 127
-0.066703 0.096469 0.421525 0 127 127
-0.235835 -0.746057 0.334855 0 127 127
0.326789 0.614911 0.389119 127 127 0
-0.023126 -0.175514 0.421525 0 127 127
-0.036676 -0.764039 0.285485 153 0 76
0.010507 -0.317280 0.421525 0 127 127
-0.279826 0.047034 -0.465629 153 0 76
-0.180697 -0.764039 -0.380110 153 0 76
-0.299906 -0.483702 0.391813 0 127 127
0.274674 -0.646988 -0.465629 153 0 76
-0.438293 0.058201 0.237700 153 0 76
-0.222136 0.198956 -0.465629 153 0 76
-0.438293 -0.375691 0.025231 153 0 76
-0.308495 0.720190 -0.415967 153 0 76
-0.392166 0.339108 0.375012 127 127 0
-0.095873 0.299699 -0.465629 153 0 76
0.333026 0.720190 0.323208 153 0 76
0.420557 0.330421 0.285805 153 0 76
0.420557 0.316347 -0.000379 153 0 76
0.420557 0.374095 0.114698 153 0 76
0.367929 0.450267 -0.465629 153 0 76
0.396353 0.047059 0.334855 0 127 127
-0.191788 0.710109 0.334855 127 127 0
0.217838 0.720190 -0.315195 153 0 76
-0.004098 0.083165 -0.465629 153 0 76
0.266772 -0.764039 -0.310636 153 0 76
-0.400053 -0.612437 -0.465629 153 0 76
-0.369006 0.543923 0.382614 127 127 0
-0.205150 0.070138 0.406318 0 127 127
-0.348362 0.720190 0.058431 153 0 76
0.024148 -0.490470 0.421525 0 127 127
-0.438293 -0.410323 -0.435176 153 0 76
-0.092460 -0.646648 0.334855 0 127 127
0.420557 0.509305 -0.429247 153 0 76
-0.438293 0.345874 0.310237 153 0 76
0.420557 -0.025882 0.008290 153 0 76
0.030921 0.720190 -0.134760 153 0 76
-0.080950 0.237798 0.421525 0 127 127
-0.051613 0.720190 0.105663 153 0 76
-0.205708 -0.212688 0.334855 0 127 127
-0.438293 -0.691019 0.113877 153 0 76
0.420557 0.491294 0.288260 153 0 76
-0.438293 0.014048 0.187179 153 0 76
0.420557 0.215623 -0.132326 153 0 76
-0.438293 -0.391339 -0.127326 153 0 76
0.420557 0.309608 -0.143762 153 0 76
0.184052 0.040278 0.334855 0 127 127
-0.206746 0.231325 0.405206 0 127 127
-0.110682 0.360999 -0.465629 153 0 76
-0.227452 0.720190 0.143490 153 0 76
-0.438293 -0.543183 0.147751 153 0 76
-0.118755 0.050954 -0.465629 153 0 76
0.281114 -0.031137 -0.465629 153 0 76
0.420557 0.263390 0.279290 153 0 76
-0.110597 0.649192 0.334855 127 127 0
0.150253 -0.665732 0.421525 0 127 127
-0.438293 0.014146 0.263376 153 0 76
0.235954 -0.606297 -0.465629 153 0 76
0.090220 -0.764039 0.041376 153 0 76
0.420557 0.543885 -0.332677 153 0 76
0.268223 -0.683462 -0.465629 153 0 76
0.203065 0.720190 -0.098763 153 0 76
-0.075950 -0.048055 -0.465629 153 0 76
-0.328941 -0.057464 0.393257 0 127 127
-0.089144 -0.456844 -0.465629 153 0 76
0.345224 -0.764039 -0.415044 127 0 127
-0.438293 0.713770 -0.168443 153 0 76
-0.276755 -0.730372 -0.465629 153 0 76
-0.438293 -0.334750 -0.229546 153 0 76
0.420557 -0.097906 0.062809 153 0 76
0.420557 -0.097597 -0.435251 153 0 76
0.268792 -0.764039 -0.213325 153 0 76
-0.422675 0.506114 0.364997 127 127 0
0.388464 -0.564357 0.334855 0 127 127
-0.438293 0.603375 0.325954 153 0 76
0.420557 0.590992 -0.124961 153 0 76
0.303463 -0.408562 0.395313 0 127 127
-0.018300 -0.764039 -0.346320 153 0 76
-0.355786 0.466835 0.334855 127 127 0
-0.433907 0.720190 -0.323184 153 0 76
0.355379 0.167249 0.381266 0 127 127
-0.085638 -0.467986 0.334855 0 127 127
-0.438293 -0.220407 -0.419493 153 0 76
-0.236285 0.118014 -0.465629 153 0 76
0.226961 0.141215 -0.465629 153 0 76
0.384163 -0.093318 0.334855 0 127 127
0.043205 0.676560 -0.465629 153 0 76
0.000881 0.463060 0.421525 127 127 0
0.032283 0.677216 0.421525 127 127 0
-0.438293 0.220837 0.318214 153 0 76
-0.438293 -0.691570 0.355433 0 127 127
-0.224135 -0.675170 0.334855 0 127 127
-0.148571 0.388591 0.334855 127 127 0
0.363443 0.159274 -0.465629 153 0 76
0.420557 0.412039 -0.009049 153 0 76
-0.153092 -0.468568 0.421525 0 127 127
0.203176 -0.036995 -0.465629 153 0 76
-0.043358 -0.563095 0.334855 0 127 127
-0.438293 0.139501 -0.111218 153 0 76
0.420557 -0.465286 -0.463352 153 0 76
0.349139 -0.432456 0.334855 0 127 127
0.420557 0.198710 0.142231 153 0 76
0.420557 -0.201086 0.009792 153 0 76
0.273521 -0.764039 0.271395 0 127 127
0.420557 -0.551581 -0.234222 153 0 76
-0.016065 -0.209878 0.421525 0 127 127
0.387040 -0.764039 0.356756 0 127 127
-0.438293 -0.172482 0.082064 153 0 76
-0.007146 -0.277410 0.421525 0 127 127
0.420557 -0.012710 0.321073 153 0 76
0.300748 -0.764039 -0.324304 153 0 76
0.416192 -0.805731 -0.427467 127 0 127
-0.438293 -0.660138 0.244433 153 0 76
-0.236737 0.634114 0.390372 127 127 0
-0.291443 0.377741 -0.465629 153 0 76
0.420557 -0.021349 -0.270676 153 0 76
0.255948 0.720190 0.296793 153 0 76
-0.366929 0.434822 -0.465629 153 0 76
0.159847 -0.764039 -0.304989 153 0 76
-0.091193 0.638815 -0.465629 153 0 76
-0.146826 -0.764039 0.107859 153 0 76
0.420557 -0.420103 -0.051868 153 0 76
-0.438293 0.036247 -0.350652 153 0 76
0.110408 0.088084 0.421525 0 127 127
0.006038 0.528424 -0.465629 153 0 76
-0.198230 0.148708 0.334855 0 127 127
0.420557 0.019952 0.011374 153 0 76
0.420557 0.673165 -0.281985 153 0 76
0.128423 0.720190 0.376569 153 0 76
-0.165386 0.279019 0.400836 127 127 0
-0.219152 -0.764039 -0.291516 153 0 76
0.285586 -0.320242 0.400059 0 127 127
-0.101426 0.424826 0.421525 127 127 0
0.108465 0.720190 0.232779 153 0 76
-0.438293 -0.724861 0.012548 153 0 76
-0.038736 -0.123887 0.334855 0 127 127
-0.407626 0.382949 -0.465629 153 0 76
-0.154317 0.720190 -0.381138 153 0 76
-0.438293 -0.697804 -0.317423 153 0 76
-0.412078 -0.805731 0.311800 76 153 0
-0.161067 0.219283 0.421525 0 127 127
0.420557 0.211932 -0.250035 153 0 76
0.404053 -0.649513 -0.465629 153 0 76
-0.438293 0.255808 -0.030917 153 0 76
-0.438293 -0.449509 -0.117839 153 0 76
0.420557 0.144468 0.110297 153 0 76
0.311108 -0.553078 -0.465629 153 0 76
-0.079753 -0.467230 0.421525 0 127 127
0.357181 -0.603471 -0.465629 153 0 76
-0.247983 -0.244860 0.334855 0 127 127
0.247601 0.200462 -0.465629 153 0 76
-0.424022 -0.182116 0.334855 0 127 127
0.251610 -0.654354 0.334855 0 127 127
-0.438293 0.349141 0.263727 153 0 76
0.420557 -0.634707 -0.095009 153 0 76
0.320061 0.019651 -0.465629 153 0 76
-0.284814 -0.499563 0.334855 0 127 127
-0.054215 -0.130360 0.421525 0 127 127
0.245070 0.720190 -0.056361 153 0 76
0.240984 0.650630 -0.465629 153 0 76
-0.066061 -0.087063 0.334855 0 127 127
-0.112390 0.267486 0.421525 127 127 0
-0.231944 0.571924 -0.465629 153 0 76
0.420557 -0.341777 -0.426196 153 0 76
0.043595 -0.737370 -0.465629 153 0 76
-0.304721 0.720190 -0.139356 153 0 76
0.128857 -0.327302 -0.465629 153 0 76
0.420557 0.330620 0.248135 153 0 76
0.057605 -0.585380 0.421525 0 127 127
-0.148051 -0.358293 0.334855 0 127 127
-0.438293 0.059476 0.300061 153 0 76
-0.243021 0.193814 0.334855 0 127 127
-0.438293 0.523017 0.032175 153 0 76
-0.438293 0.193340 0.197450 153 0 76
-0.424032 -0.560078 0.334855 0 127 127
-0.438293 0.099834 0.039859 153 0 76
-0.001930 0.561452 -0.465629 153 0 76
0.294428 -0.764039 -0.379001 127 0 127
-0.075219 -0.593168 0.334855 0 127 127
0.408021 0.083916 0.363985 0 127 127
0.003657 -0.701750 0.421525 0 127 127
0.031289 0.235237 0.421525 0 127 127
-0.438293 0.599500 -0.191527 153 0 76
-0.351416 -0.203095 0.334855 0 127 127
0.042794 0.720190 0.353592 153 0 76
0.420557 0.120601 -0.186965 153 0 76
0.343988 0.136229 0.334855 0 127 127
0.128428 0.720190 -0.041104 153 0 76
-0.358981 0.720190 -0.154460 153 0 76
0.420557 0.548200 -0.101926 153 0 76
0.146113 0.152301 0.421525 0 127 127
0.123521 0.143993 -0.465629 153 0 76
0.195019 0.483114 0.334855 127 127 0
-0.438293 0.634278 -0.219154 153 0 76
-0.318150 0.350552 0.334855 127 127 0
0.209893 -0.764039 -0.072404 153 0 76
-0.057891 0.397320 -0.465629 153 0 76
-0.184554 -0.416959 0.421525 0 127 127
0.419060 -0.276212 -0.465629 153 0 76
0.160328 0.720190 0.244694 153 0 76
0.420557 0.237594 0.227994 153 0 76
-0.373895 -0.402816 0.381010 0 127 127
0.317700 0.720190 -0.261665 153 0 76
-0.079154 -0.764039 0.183076 153 0 76
-0.255044 -0.438728 0.386702 0 127 127
0.384422 0.290567 0.371732 127 127 0
0.194759 0.637469 0.418095 127 127 0
0.328269 -0.764039 -0.122145 153 0 76
-0.267486 -0.675707 0.334855 0 127 127
0.061543 0.293227 -0.465629 153 0 76
-0.438293 -0.244882 -0.363029 153 0 76
-0.438293 0.199643 -0.458736 153 0 76
-0.158081 -0.638329 0.421525 0 127 127
-0.438293 -0.357442 -0.370915 153 0 76
-0.438293 0.043902 0.166289 153 0 76
0.262261 0.720190 -0.425190 153 0 76
-0.233495 -0.764039 -0.196093 153 0 76
-0.011182 0.293351 -0.465629 153 0 76
0.080620 0.383928 0.421525 127 127 0
0.150896 0.279019 0.385568 127 127 0
0.105880 -0.764039 -0.348603 153 0 76
0.269464 0.067920 -0.465629 153 0 76
-0.438293 -0.093001 0.229247 153 0 76
0.420557 -0.272833 0.113642 153 0 76
-0.438293 -0.502509 -0.225484 153 0 76
0.420557 -0.217516 -0.046879 153 0 76
0.098072 -0.401588 -0.465629 153 0 76
-0.402911 -0.676008 -0.465629 153 0 76
0.204512 0.093204 -0.465629 153 0 76
-0.107241 0.490216 -0.465629 153 0 76
0.143088 0.096430 -0.465629 153 0 76
-0.092523 -0.764039 -0.332801 153 0 76
-0.342996 0.002423 0.389525 0 127 127
0.290039 -0.764039 -0.018168 153 0 76
-0.438293 0.055920 -0.437865 153 0 76
0.420557 -0.159900 -0.356994 153 0 76
-0.438293 0.597220 -0.380886 153 0 76
0.264871 -0.301350 0.334855 0 127 127
-0.146581 -0.764039 -0.140596 153 0 76
-0.111449 -0.578007 0.334855 0 127 127
-0.192681 0.640507 -0.465629 153 0 76
-0.229998 0.271729 0.367488 127 127 0
-0.399813 -0.042546 -0.465629 153 0 76
-0.131471 0.204043 0.421525 0 127 127
0.373159 0.599786 -0.465629 153 0 76
0.420557 0.034007 -0.136550 153 0 76
-0.095626 0.425148 -0.465629 153 0 76
-0.274208 -0.093592 0.386425 0 127 127
-0.178482 0.667245 0.421525 127 127 0
-0.438293 -0.716466 0.197886 153 0 76
-0.438293 -0.709032 -0.276102 153 0 76
-0.438293 0.262537 0.084202 153 0 76
-0.324617 -0.354868 -0.465629 153 0 76
0.080239 -0.588466 -0.465629 153 0 76
-0.134040 -0.549208 0.334855 0 127 127
0.419229 -0.764039 0.069222 153 0 76
0.141180 0.720190 -0.157956 153 0 76
0.420557 0.471972 -0.455146 153 0 76
-0.310069 0.130128 0.334855 0 127 127
0.354397 0.061720 0.381588 0 127 127
0.420557 -0.548488 -0.169759 153 0 76
0.097860 0.224501 0.421525 0 127 127
0.358154 -0.764039 0.278634 0 127 127
0.080649 -0.764039 0.103149 153 0 76
0.320294 -0.252603 -0.465629 153 0 76
-0.204759 0.720190 -0.312241 153 0 76
-0.100342 0.499395 0.334855 127 127 0
0.362929 -0.189074 0.378787 0 127 127
0.420557 -0.378562 -0.356591 153 0 76
-0.248665 -0.198990 -0.465629 153 0 76
0.286361 0.279019 0.335482 127 127 0
0.420557 -0.644914 -0.360701 153 0 76
-0.330140 -0.764039 -0.066187 153 0 76
-0.438293 -0.679082 -0.370434 153 0 76
-0.333139 -0.316030 0.334855 0 127 127
-0.438293 0.399124 0.238417 153 0 76
-0.015069 -0.764039 0.319623 0 127 127
0.420557 0.581675 0.043610 153 0 76
0.007230 -0.056949 0.421525 0 127 127
-0.370476 -0.490633 -0.465629 153 0 76
-0.242971 -0.408695 0.388798 0 127 127
0.114840 -0.038201 -0.465629 153 0 76
0.257711 -0.538284 0.334855 0 127 127
-0.438293 0.667461 0.035781 153 0 76
0.420557 -0.004182 0.253763 153 0 76
-0.438293 -0.602790 -0.434148 153 0 76
0.309585 0.720190 -0.306444 153 0 76
0.057077 -0.008497 -0.465629 153 0 76
-0.438293 -0.479468 0.202708 153 0 76
0.420557 -0.204805 0.253773 153 0 76
0.126592 0.720190 -0.409332 153 0 76
-0.308350 0.380719 0.334855 127 127 0
0.166070 -0.737948 -0.465629 153 0 76
0.211329 -0.764039 0.412311 0 127 127
0.191414 0.720190 -0.143244 153 0 76
0.351764 -0.130002 0.334855 0 127 127
0.420557 0.471668 -0.010862 153 0 76
-0.302384 -0.353356 0.392611 0 127 127
0.175125 0.720190 0.391996 127 127 0
-0.174891 0.360664 -0.465629 153 0 76
-0.438293 0.025359 -0.293238 153 0 76
0.236464 0.204865 0.334855 0 127 127
-0.438293 0.497090 -0.302865 153 0 76
-0.438293 -0.738891 0.167699 153 0 76
-0.112979 0.095835 -0.465629 153 0 76
-0.083876 0.028392 -0.465629 153 0 76
0.019420 -0.548008 0.421525 0 127 127
0.158850 -0.397513 -0.465629 153 0 76
0.145401 0.014990 0.421525 0 127 127
0.085349 0.279019 0.364593 127 127 0
0.199874 -0.207931 -0.465629 153 0 76
-0.438293 -0.441046 -0.080700 153 0 76
0.397572 0.388843 0.367415 127 127 0
0.017724 -0.707534 0.334855 0 127 127
0.420557 0.329551 -0.340456 153 0 76
-0.256955 -0.764039 0.311399 153 0 76
-0.393294 -0.764039 0.085700 153 0 76
-0.438293 -0.319556 0.056456 153 0 76
0.219449 -0.764039 0.129568 153 0 76
0.100302 -0.737479 0.334855 0 127 127
0.420557 -0.559987 0.074552 153 0 76
0.361192 -0.558792 0.379358 0 127 127
-0.438293 0.294876 0.277620 153 0 76
-0.438293 -0.293277 0.183080 153 0 76
0.420557 -0.588431 0.167866 153 0 76
-0.060422 0.491181 0.421525 127 127 0
-0.438293 0.499269 0.271493 153 0 76
-0.351499 0.341757 0.387268 127 127 0
0.295326 0.437625 0.334855 127 127 0
-0.072321 0.288368 0.334855 127 127 0
-0.191147 -0.514423 0.334855 0 127 127
-0.078730 0.057273 0.334855 0 127 127
-0.067225 -0.627166 0.421525 0 127 127
-0.023040 -0.059530 0.334855 0 127 127
0.328939 0.119434 0.388549 0 127 127
-0.091891 0.603127 -0.465629 153 0 76
-0.438293 -0.134161 -0.392508 153 0 76
-0.203116 -0.042515 0.334855 0 127 127
-0.438293 -0.534523 0.046703 153 0 76
-0.438293 -0.436191 -0.226720 153 0 76
0.017770 -0.764039 0.308127 153 0 76
-0.438293 0.399820 0.332659 153 0 76
-0.346860 0.720190 0.165082 153 0 76
0.420557 -0.370389 -0.280805 153 0 76
0.222665 0.146329 0.334855 0 127 127
0.200274 -0.559744 0.334855 0 127 127
-0.438293 0.185449 -0.199001 153 0 76
-0.425909 -0.764039 0.121796 153 0 76
0.258913 -0.106153 0.334855 0 127 127
0.188413 0.720190 0.298004 153 0 76
0.306895 0.331987 -0.465629 153 0 76
-0.045246 -0.764039 -0.155089 153 0 76
-0.279155 -0.764039 -0.333016 153 0 76
0.115518 0.720190 -0.463597 153 0 76
0.420557 0.658125 -0.053552 153 0 76
0.183152 -0.324985 0.419780 0 127 127
0.420557 0.270915 -0.274129 153 0 76
0.164097 -0.764039 -0.253936 153 0 76
-0.139988 0.284681 0.334855 127 127 0
0.365532 0.697945 -0.465629 153 0 76
-0.317150 0.016935 -0.465629 153 0 76
-0.187200 0.720190 0.401197 127 127 0
0.306772 -0.147268 -0.465629 153 0 76
0.394005 -0.262326 0.334855 0 127 127
-0.385096 -0.072276 0.377333 0 127 127
-0.410858 0.365647 0.334855 127 127 0
-0.144755 0.133855 0.334855 0 127 127
-0.051695 -0.006563 -0.465629 153 0 76
0.420557 0.023693 0.340700 0 127 127
-0.155595 0.088138 0.334855 0 127 127
0.420557 0.188366 -0.210094 153 0 76
0.420557 -0.122781 0.115044 153 0 76
0.094584 0.713279 0.334855 127 127 0
-0.438293 0.286823 -0.157585 153 0 76
0.083559 0.720190 0.305053 153 0 76
-0.202573 0.627723 0.408464 127 127 0
-0.358170 -0.053983 0.385497 0 127 127
0.420557 0.034899 -0.307980 153 0 76
-0.065325 -0.147846 0.334855 0 127 127
0.171518 -0.764039 0.347285 153 0 76
-0.371815 -0.592659 -0.465629 153 0 76
-0.054777 -0.670411 0.421525 0 127 127
-0.438293 0.690856 0.182010 153 0 76
0.394925 -0.157439 0.334855 0 127 127
0.420557 -0.141110 0.159624 153 0 76
0.327277 -0.691576 0.388990 0 127 127
0.298224 -0.764039 -0.429328 127 0 127
-0.438293 -0.093475 -0.257745 153 0 76
-0.438293 0.246131 0.272799 153 0 76
0.339478 -0.282041 -0.465629 153 0 76
-0.438293 -0.446288 -0.440690 153 0 76
-0.438293 -0.730492 0.308706 153 0 76
-0.179743 -0.020942 0.421525 0 127 127
0.298830 0.479890 0.396543 127 127 0
0.420557 0.192833 0.293333 153 0 76
-0.438293 -0.026805 -0.272690 153 0 76
0.212534 -0.158608 -0.465629 153 0 76
0.331214 -0.093243 0.387945 0 127 127
0.172516 0.106142 -0.465629 153 0 76
-0.438293 0.060823 -0.199894 153 0 76
0.420557 -0.391659 0.123447 153 0 76
0.420557 -0.019288 -0.095061 153 0 76
0.382463 -0.788768 -0.382245 127 0 127
-0.160579 -0.357108 0.421525 0 127 127
-0.438293 -0.315405 0.320031 153 0 76
-0.147432 -0.025764 0.421525 0 127 127
-0.365142 0.720190 0.227032 153 0 76
0.016579 -0.387991 0.421525 0 127 127
0.307864 -0.441857 0.334855 0 127 127
-0.179886 0.400711 0.334855 127 127 0
0.420557 -0.051520 -0.406020 153 0 76
-0.264245 0.130150 -0.465629 153 0 76
0.117508 -0.171554 0.421525 0 127 127
-0.438293 -0.397265 0.220866 153 0 76
-0.438293 -0.344022 0.212792 153 0 76
0.366461 0.668017 0.377628 127 127 0
0.034849 0.502686 0.421525 127 127 0
-0.103746 -0.564701 0.421525 0 127 127
0.063215 -0.764039 0.250531 153 0 76
0.420557 -0.581157 0.217479 153 0 76
-0.203572 0.494199 0.407634 127 127 0
-0.438293 0.383049 -0.248666 153 0 76
-0.438293 -0.611039 0.116330 153 0 76
-0.438293 0.113777 -0.464689 153 0 76
-0.438293 -0.155779 0.261226 153 0 76
0.420557 0.387210 0.224341 153 0 76
0.243475 -0.021108 0.408978 0 127 127
0.351228 0.720190 -0.080207 153 0 76
0.420557 -0.262098 0.258390 153 0 76
-0.438293 0.312604 0.014826 153 0 76
-0.201671 0.581078 0.409215 127 127 0
0.420557 0.368408 0.027318 153 0 76
-0.438293 -0.198774 0.025778 153 0 76
0.023801 -0.265267 0.421525 0 127 127
-0.010049 0.690484 0.421525 127 127 0
0.281476 0.486227 0.334855 127 127 0
0.420557 0.145378 -0.016187 153 0 76
-0.242005 -0.764039 -0.389359 153 0 76
0.313269 -0.764039 0.173078 153 0 76
0.034685 0.065206 -0.465629 153 0 76
0.420557 -0.628272 0.077715 153 0 76
0.029015 -0.764039 -0.164259 153 0 76
0.313161 -0.647768 0.392738 0 127 127
-0.193167 0.710439 -0.465629 153 0 76
0.420557 0.146721 -0.457529 153 0 76
0.420557 -0.612516 -0.044348 153 0 76
-0.438293 -0.781897 0.356870 76 153 0
-0.407753 0.720190 -0.204848 153 0 76
0.080036 -0.430766 -0.465629 153 0 76
-0.438293 -0.693766 0.052272 153 0 76
-0.403336 -0.764039 -0.209826 153 0 76
-0.319387 -0.728898 -0.465629 153 0 76
0.081178 0.143558 -0.465629 153 0 76
-0.406589 0.720190 0.038873 153 0 76
-0.278487 0.720190 0.372665 153 0 76
0.129237 -0.138275 0.334855 0 127 127
0.019561 0.189665 -0.465629 153 0 76
0.061543 -0.764039 -0.037404 153 0 76
-0.259650 0.186978 0.386245 0 127 127
0.215456 0.720190 -0.162689 153 0 76
0.034934 -0.764039 0.019646 153 0 76
0.225226 -0.484051 -0.465629 153 0 76
0.311680 -0.764039 0.318672 0 127 127
-0.003369 -0.317848 0.334855 0 127 127
0.393704 -0.498943 -0.465629 153 0 76
0.239044 -0.153967 0.334855 0 127 127
-0.408948 -0.119089 0.334855 0 127 127
-0.213185 0.606374 0.334855 127 127 0
-0.000647 0.720190 0.348929 153 0 76
-0.232883 -0.764039 0.216147 153 0 76
0.420557 0.603180 0.267817 153 0 76
0.205332 0.720190 -0.364896 153 0 76
-0.190513 -0.054395 0.419810 0 127 127
-0.438293 -0.664001 0.086757 153 0 76
-0.059512 0.655299 0.421525 127 127 0
-0.246061 -0.738136 0.388018 0 127 127
0.200773 0.672014 -0.465629 153 0 76
0.420557 -0.359789 -0.043263 153 0 76
0.120250 -0.396127 0.421525 0 127 127
0.100337 -0.344634 0.421525 0 127 127
0.044287 0.224993 0.334855 0 127 127
-0.431799 -0.496489 -0.465629 153 0 76
0.297989 -0.764039 0.063425 153 0 76
-0.438293 -0.531608 -0.005321 153 0 76
-0.363716 0.228990 0.334855 0 127 127
0.171607 0.288597 -0.465629 153 0 76
0.405386 -0.741378 0.334855 0 127 127
-0.438293 -0.753954 0.064215 153 0 76
-0.420708 -0.779736 -0.390583 153 0 76
0.420557 -0.114724 -0.399018 153 0 76
-0.176189 -0.171325 0.334855 0 127 127
0.420557 -0.324449 0.285666 153 0 76
-0.334363 0.157252 0.391817 0 127 127
-0.282606 0.211740 -0.465629 153 0 76
-0.404470 -0.015126 0.370973 0 127 127
-0.329329 0.223922 -0.465629 153 0 76
0.151783 0.692429 0.421525 127 127 0
0.091316 -0.764039 -0.435411 153 0 76
-0.438293 0.552009 -0.176085 153 0 76
0.149457 -0.376897 0.421525 0 127 127
0.416509 -0.764039 0.181452 153 0 76
-0.354909 -0.789839 0.314617 76 153 0
-0.382338 0.720190 -0.058823 153 0 76
0.150990 -0.764039 0.029017 153 0 76
0.420557 0.350773 0.001611 153 0 76
0.336019 -0.330142 -0.465629 153 0 76
-0.106333 -0.381443 0.421525 0 127 127
-0.329499 -0.243261 0.393109 0 127 127
-0.199333 0.361661 0.411161 127 127 0
-0.211764 0.250754 0.334855 0 127 127
0.420557 -0.658862 -0.137399 153 0 76
0.420557 -0.256046 -0.360300 153 0 76
-0.174285 -0.764039 -0.231552 153 0 76
-0.131609 -0.607366 0.334855 0 127 127
-0.149697 -0.306727 0.334855 0 127 127
-0.438293 0.652813 -0.395504 153 0 76
0.420557 -0.527518 0.082402 153 0 76
-0.197271 -0.063280 -0.465629 153 0 76
0.420557 -0.485787 -0.043330 153 0 76
0.420557 -0.486398 -0.408708 153 0 76
0.252399 -0.392987 0.334855 0 127 127
-0.413981 0.444964 0.367850 127 127 0
-0.179852 0.222084 -0.465629 153 0 76
0.049650 0.390952 -0.465629 153 0 76
0.350310 0.720190 -0.122689 153 0 76
-0.438293 0.232883 0.212367 153 0 76
0.120920 0.568057 0.421525 127 127 0
0.026087 -0.457515 0.421525 0 127 127
0.034694 0.494429 -0.465629 153 0 76
-0.412086 0.421774 0.334855 127 127 0
-0.397080 -0.167493 -0.465629 153 0 76
0.420557 -0.290431 0.079896 153 0 76
-0.382182 0.090676 -0.465629 153 0 76
-0.438293 -0.497196 0.260159 153 0 76
0.202169 -0.075121 0.334855 0 127 127
-0.213079 -0.764039 0.007907 153 0 76
0.012658 0.245184 0.334855 0 127 127
-0.438293 0.564197 -0.386624 153 0 76
0.401508 0.247745 0.334855 0 127 127
0.305604 0.720190 0.215138 153 0 76
0.239397 0.171120 0.334855 0 127 127
-0.421199 0.018826 0.334855 0 127 127
-0.438293 -0.366366 -0.272708 153 0 76
-0.438293 0.336641 0.073396 153 0 76
0.418355 0.515639 0.360593 127 127 0
-0.016687 -0.764039 -0.082705 153 0 76
0.088331 -0.351441 0.334855 0 127 127
-0.438293 -0.608634 -0.009109 153 0 76
-0.302109 -0.764039 -0.385631 153 0 76
0.275185 0.283928 -0.465629 153 0 76
0.420557 -0.485207 -0.238955 153 0 76
0.420557 0.301036 -0.318701 153 0 76
0.336320 0.527026 0.386589 127 127 0
0.097272 -0.624407 0.334855 0 127 127
0.278872 0.077837 0.334855 0 127 127
0.295912 -0.126282 0.334855 0 127 127
-0.137898 0.694345 0.421525 127 127 0
-0.438293 -0.463036 -0.398911 153 0 76
-0.188991 -0.709429 0.421395 0 127 127
-0.028614 -0.501000 0.334855 0 127 127
-0.104780 0.528868 0.421525 127 127 0
-0.012213 0.720190 -0.224135 153 0 76
-0.438293 -0.103844 -0.365096 153 0 76
0.420557 0.643551 -0.410479 153 0 76
-0.239195 -0.124893 0.334855 0 127 127
0.265191 0.099305 -0.465629 153 0 76
0.130254 -0.122142 -0.465629 153 0 76
0.049872 -0.086707 0.421525 0 127 127
-0.162283 0.599730 0.334855 127 127 0
0.140159 0.450131 0.334855 127 127 0
-0.021494 0.441079 0.421525 127 127 0
-0.438293 0.223859 -0.001859 153 0 76
-0.438293 0.367266 0.081865 153 0 76
-0.150933 0.720190 -0.098494 153 0 76
0.291176 0.720190 -0.099773 153 0 76
0.345046 -0.543342 0.334855 0 127 127
-0.365788 -0.764039 -0.171663 153 0 76
0.091517 0.688593 -0.465629 153 0 76
-0.438293 0.141001 0.305639 153 0 76
-0.026343 0.373181 0.334855 127 127 0
-0.083995 0.720190 0.005763 153 0 76
0.314756 -0.196728 -0.465629 153 0 76
0.420557 -0.338566 0.110105 153 0 76
0.177765 0.720190 -0.309615 153 0 76
0.420557 0.413113 -0.440520 153 0 76
0.420557 0.242284 -0.183307 153 0 76
0.394477 -0.764039 -0.303969 153 0 76
-0.438293 -0.351852 -0.440277 153 0 76
0.039191 0.720190 -0.188679 153 0 76
-0.200893 0.687002 0.409863 127 127 0
-0.122380 -0.764039 -0.002875 153 0 76
0.004795 0.720190 0.259471 153 0 76
-0.438293 -0.052201 -0.145969 153 0 76
-0.329103 -0.764039 0.241233 76 153 0
-0.397201 -0.764039 -0.281576 153 0 76
0.239885 0.676498 0.409713 127 127 0
-0.009593 0.318260 0.334855 127 127 0
0.211344 -0.300382 0.334855 0 127 127
0.102837 -0.692837 -0.465629 153 0 76
0.123492 -0.764039 0.172955 153 0 76
0.072902 0.679534 0.421525 127 127 0
-0.180096 -0.747106 -0.465629 153 0 76
-0.150880 -0.764039 0.042391 153 0 76
0.420557 0.691882 0.226656 153 0 76
0.024341 -0.764039 0.133723 153 0 76
0.420557 0.704719 0.294381 153 0 76
-0.300759 0.449321 0.392088 127 127 0
0.014535 -0.466836 -0.465629 153 0 76
-0.438293 0.059819 0.118238 153 0 76
-0.428316 -0.576055 0.363145 0 127 127
-0.019362 -0.444540 0.421525 0 127 127
0.319009 -0.650001 -0.465629 153 0 76
0.420557 0.142422 0.047551 153 0 76
0.022870 -0.223885 0.334855 0 127 127
0.182040 0.098933 0.334855 0 127 127
-0.438293 -0.561255 -0.198202 153 0 76
-0.438293 0.652802 0.326282 153 0 76
-0.080789 0.649357 0.334855 127 127 0
-0.281374 0.591910 0.334855 127 127 0
0.276226 0.387833 -0.465629 153 0 76
-0.270495 0.720190 -0.088033 153 0 76
0.022872 0.099569 0.334855 0 127 127
-0.438293 -0.682810 0.291066 153 0 76
0.233995 -0.764039 0.044491 153 0 76
-0.404949 0.585995 0.370815 127 127 0
-0.148073 0.720190 -0.157572 153 0 76
0.420557 0.403314 -0.345195 153 0 76
0.240892 0.477883 0.409507 127 127 0
-0.438293 -0.265938 -0.244657 153 0 76
-0.348863 -0.309324 -0.465629 153 0 76
-0.274692 0.563680 0.386469 127 127 0
0.420557 -0.181761 0.315970 153 0 76
-0.415706 0.425303 -0.465629 153 0 76
-0.417587 0.720190 0.232515 153 0 76
0.420557 0.209677 0.170974 153 0 76
-0.180375 -0.764039 0.067310 153 0 76
-0.216128 0.720190 0.274702 153 0 76
0.270098 0.720190 -0.240630 153 0 76
0.375480 0.720190 0.024635 153 0 76
-0.438293 0.615743 -0.436205 153 0 76
-0.337463 -0.764039 0.363873 76 153 0
-0.055326 0.345003 0.334855 127 127 0
-0.129658 0.072425 0.334855 0 127 127
-0.050613 0.236710 0.421525 0 127 127
-0.143488 -0.764039 -0.326210 153 0 76
0.183497 0.720190 0.094406 153 0 76
-0.268301 0.720190 0.308907 153 0 76
-0.139005 0.342180 -0.465629 153 0 76
-0.383926 0.658324 0.377716 127 127 0
0.123973 -0.764039 -0.150616 153 0 76
0.069741 0.691854 0.334855 127 127 0
-0.304274 0.720190 -0.190922 153 0 76
0.107091 0.628085 -0.465629 153 0 76
0.411145 0.330319 -0.465629 153 0 76
-0.352380 0.302183 -0.465629 153 0 76
0.231232 0.394772 -0.465629 153 0 76
0.331903 0.720190 0.062005 153 0 76
-0.293005 0.289398 0.334855 127 127 0
0.365898 0.064432 -0.465629 153 0 76
-0.438293 0.292878 -0.124289 153 0 76
-0.143166 -0.209953 0.334855 0 127 127
-0.160357 0.531193 -0.465629 153 0 76
0.279717 0.328566 0.401562 127 127 0
0.123839 0.182175 0.334855 0 127 127
-0.299498 0.362377 0.391682 127 127 0
0.420557 0.473358 0.068182 153 0 76
0.337174 -0.791089 0.329823 0 127 127
-0.438293 0.198052 0.165004 153 0 76
0.116636 0.382991 -0.465629 153 0 76
-0.438293 -0.767787 -0.463050 153 0 76
0.204836 0.586172 -0.465629 153 0 76
-0.438293 0.221692 -0.238086 153 0 76
0.403675 0.720190 -0.258144 153 0 76
0.420557 0.268598 -0.043058 153 0 76
0.420557 0.272431 -0.335022 153 0 76
0.349135 -0.764039 0.340430 0 127 127
-0.415915 0.580510 -0.465629 153 0 76
-0.391877 0.483821 -0.465629 153 0 76
0.150102 0.462109 0.421525 127 127 0
-0.438293 0.492205 0.305222 153 0 76
0.420557 0.412365 -0.168995 153 0 76
0.007446 -0.098078 -0.465629 153 0 76
0.420557 0.280883 -0.150474 153 0 76
0.393676 0.161631 -0.465629 153 0 76
0.023093 0.341272 -0.465629 153 0 76
-0.334573 -0.685422 0.391761 0 127 127
-0.438293 0.238320 -0.056648 153 0 76
-0.438293 -0.230659 -0.005644 153 0 76
-0.438293 -0.215374 0.115374 153 0 76
-0.372854 -0.535120 0.381351 0 127 127
-0.130250 0.720190 -0.208588 153 0 76
-0.052200 -0.764039 0.236737 153 0 76
-0.438293 -0.161722 -0.062235 153 0 76
0.391569 0.542316 -0.465629 153 0 76
0.380637 -0.764039 0.055150 153 0 76
-0.004627 0.099997 0.421525 0 127 127
0.239222 -0.764039 0.379650 0 127 127
0.420557 0.137668 0.347340 0 127 127
0.420557 -0.724300 -0.381190 153 0 76
0.270815 -0.764039 -0.151269 153 0 76
0.420557 0.280705 -0.465425 153 0 76
-0.438293 0.028037 -0.149518 153 0 76
-0.008352 0.720190 0.389413 153 0 76
-0.099765 -0.764039 0.407332 0 127 127
0.396424 -0.788213 -0.465629 127 0 127
-0.240467 0.720190 0.171493 153 0 76
0.247964 0.018355 -0.465629 153 0 76
-0.073960 0.693363 0.334855 127 127 0
0.275765 -0.764039 0.020429 153 0 76
-0.080056 -0.764039 0.294592 153 0 76
0.234571 0.291964 0.410800 127 127 0
-0.370704 -0.724923 -0.465629 153 0 76
-0.211675 0.547962 0.334855 127 127 0
0.420557 -0.170871 0.014468 153 0 76
0.045543 -0.368500 0.421525 0 127 127
0.162717 0.279019 0.355052 127 127 0
0.420557 0.260623 0.181857 153 0 76
-0.064109 -0.764039 -0.380174 153 0 76
0.035506 -0.321763 -0.465629 153 0 76
0.348185 -0.159745 0.383439 0 127 127
0.012614 0.166004 0.334855 0 127 127
-0.438293 0.323518 0.179831 153 0 76
0.080565 0.248205 0.421525 0 127 127
-0.029310 0.530479 0.421525 127 127 0
0.023871 0.018892 0.334855 0 127 127
-0.034390 0.720190 -0.107874 153 0 76
0.407102 0.190954 0.364287 0 127 127
-0.438293 -0.628551 -0.256093 153 0 76
-0.438293 -0.120935 0.291206 153 0 76
0.172918 -0.764039 0.242843 153 0 76
0.195487 -0.449155 0.334855 0 127 127
-0.438293 0.691214 -0.441273 153 0 76
-0.331096 -0.253018 0.334855 0 127 127
0.420557 -0.354127 0.070958 153 0 76
-0.258659 -0.709414 0.386270 0 127 127
0.005219 0.260343 -0.465629 153 0 76
-0.438293 0.412837 -0.016617 153 0 76
0.280187 -0.370203 -0.465629 153 0 76
-0.252625 -0.764039 0.261933 153 0 76
0.036786 0.720190 -0.253815 153 0 76
0.316597 0.720190 0.274965 153 0 76
-0.198596 -0.342031 0.334855 0 127 127
0.420557 -0.444136 -0.342820 153 0 76
0.275599 0.720190 0.248735 153 0 76
-0.438293 0.555365 -0.061035 153 0 76
0.070125 0.178809 0.421525 0 127 127
-0.370293 0.399266 0.334855 127 127 0
-0.438293 0.075354 -0.016675 153 0 76
0.216893 -0.076212 -0.465629 153 0 76
-0.438293 -0.236220 -0.064111 153 0 76
0.214234 -0.144251 0.414962 0 127 127
0.031391 0.720190 0.028830 153 0 76
-0.055120 0.720190 0.143524 153 0 76
0.391167 -0.805731 0.307774 0 127 127
0.406052 -0.201706 0.364631 0 127 127
-0.294504 -0.440200 0.334855 0 127 127
-0.328990 -0.764039 -0.330848 153 0 76
-0.438293 0.631283 -0.463205 153 0 76
0.420557 -0.443961 0.151964 153 0 76
-0.438293 0.036803 0.358792 0 127 127
-0.280848 0.088414 0.334855 0 127 127
0.000751 0.637720 -0.465629 153 0 76
0.420557 -0.367332 0.238440 153 0 76
-0.438293 -0.737493 -0.238671 153 0 76
-0.438293 0.262100 -0.338411 153 0 76
-0.375813 0.511684 0.334855 127 127 0
0.065218 -0.416608 0.421525 0 127 127
0.205028 -0.764039 -0.153192 153 0 76
-0.287452 0.311888 -0.465629 153 0 76
0.088072 -0.688629 0.421525 0 127 127
-0.280612 -0.270352 0.386991 0 127 127
-0.056469 -0.108246 -0.465629 153 0 76
-0.137442 -0.749463 0.421525 0 127 127
-0.415395 0.355021 0.367386 127 127 0
-0.285325 0.720190 0.022337 153 0 76
-0.013466 0.271729 0.365089 0 127 127
-0.438293 -0.329890 -0.197165 153 0 76
-0.438293 0.421913 0.103411 153 0 76
0.420557 0.209862 0.268936 153 0 76
-0.268730 -0.700123 -0.465629 153 0 76
-0.438293 -0.110802 -0.082078 153 0 76
0.168436 0.686956 -0.465629 153 0 76
0.133107 -0.174340 -0.465629 153 0 76
0.052332 -0.577416 -0.465629 153 0 76
0.303759 0.220455 0.334855 0 127 127
-0.318759 0.392037 0.395968 127 127 0
0.420557 -0.686638 -0.323223 153 0 76
-0.185009 -0.764039 -0.053435 153 0 76
-0.226565 0.002063 0.394073 0 127 127
-0.224060 -0.545660 -0.465629 153 0 76
0.023061 0.720190 -0.343130 153 0 76
0.061791 0.058295 0.421525 0 127 127
0.130794 0.659240 0.334855 127 127 0
-0.438293 -0.384661 0.129580 153 0 76
-0.090207 -0.524437 0.334855 0 127 127
0.420557 0.598741 -0.350569 153 0 76
-0.391905 0.193338 -0.465629 153 0 76
0.167418 0.433310 0.334855 127 127 0
-0.354909 -0.780996 0.277285 76 153 0
-0.438293 -0.106818 -0.050979 153 0 76
0.219268 0.031302 -0.465629 153 0 76
-0.438293 -0.215374 0.268217 153 0 76
-0.438293 -0.306146 -0.159162 153 0 76
-0.360457 -0.764039 0.342446 0 127 127
0.399579 -0.764039 -0.359806 153 0 76
-0.438293 0.234454 0.353440 0 127 127
-0.120130 -0.221901 0.421525 0 127 127
-0.297476 -0.208842 0.334855 0 127 127
0.337644 0.425688 0.386238 127 127 0
-0.438293 -0.509765 -0.316045 153 0 76
0.076315 0.536197 -0.465629 153 0 76
0.284610 -0.569316 -0.465629 153 0 76
-0.049517 -0.051839 0.421525 0 127 127
-0.438293 -0.610488 -0.201333 153 0 76
0.053280 0.720190 -0.115144 153 0 76
-0.438293 -0.373767 -0.188816 153 0 76
0.420557 0.305423 -0.027623 153 0 76
0.418022 -0.292751 0.334855 153 0 76
-0.431866 0.067683 0.361980 0 127 127
0.420557 -0.421885 0.048360 153 0 76
-0.438293 0.087127 0.105471 153 0 76
0.420557 -0.680083 -0.382360 153 0 76
-0.142032 -0.488268 0.334855 0 127 127
0.420557 -0.073275 0.295717 153 0 76
-0.377283 -0.764039 -0.464867 153 0 76
0.420557 -0.730585 0.108079 153 0 76
0.358934 0.396110 -0.465629 153 0 76
0.075018 -0.679641 0.334855 0 127 127
0.420557 0.540593 0.270577 153 0 76
-0.438293 -0.702090 -0.048440 153 0 76
0.347257 -0.184889 0.334855 0 127 127
0.344755 -0.487802 0.334855 0 127 127
-0.274815 0.720190 -0.232899 153 0 76
-0.438293 -0.054775 -0.335957 153 0 76
-0.020374 0.511164 0.334855 127 127 0
-0.302233 0.720190 -0.101778 153 0 76
-0.147705 -0.764039 -0.255196 153 0 76
0.420557 -0.312568 0.161523 153 0 76
0.326655 0.098366 -0.465629 153 0 76
0.336733 -0.764039 -0.377290 127 0 127
-0.306092 -0.024218 0.394222 0 127 127
-0.243956 0.445740 0.388550 127 127 0
0.420557 0.326059 -0.257777 153 0 76
0.419411 0.647427 -0.465629 153 0 76
-0.083392 -0.727482 0.421525 0 127 127
0.420557 -0.071280 -0.169003 153 0 76
0.420557 -0.484312 -0.179761 153 0 76
-0.438293 -0.258657 -0.204947 153 0 76
-0.438293 0.325669 -0.013211 153 0 76
0.402855 -0.148441 0.365681 0 127 127
0.420557 -0.703938 -0.442624 153 0 76
-0.311076 0.565981 0.396467 127 127 0
0.420557 0.083991 -0.136980 153 0 76
0.116497 -0.202325 0.421525 0 127 127
-0.438293 -0.442174 -0.308317 153 0 76
-0.085625 -0.085875 0.421525 0 127 127
-0.438293 -0.503684 0.227042 153 0 76
0.420557 0.233361 0.194431 153 0 76
-0.082957 -0.764039 -0.040368 153 0 76
-0.033397 0.592467 0.334855 127 127 0
0.420557 -0.616208 -0.321494 153 0 76
-0.438293 0.608418 0.280140 153 0 76
-0.210589 -0.764039 0.049127 153 0 76
-0.258243 0.720190 -0.021948 153 0 76
-0.052668 0.554707 0.421525 127 127 0
-0.156808 -0.408860 0.421525 0 127 127
0.420557 0.500609 -0.052975 153 0 76
-0.438293 0.687703 -0.135615 153 0 76
0.195081 0.720190 0.176126 153 0 76
-0.185772 -0.705139 0.334855 0 127 127
-0.236182 -0.600642 0.390512 0 127 127
0.203444 0.720190 0.034438 153 0 76
0.122692 0.532723 0.334855 127 127 0
-0.102913 -0.491139 0.334855 0 127 127
-0.181030 0.497452 0.334855 127 127 0
-0.248694 -0.350238 0.334855 0 127 127
0.317178 0.481651 -0.465629 153 0 76
0.034824 0.271729 0.400892 127 127 0
0.203994 -0.393546 0.334855 0 127 127
-0.438293 -0.697412 -0.009692 153 0 76
0.153872 -0.739327 0.421525 0 127 127
0.125096 -0.601738 0.334855 0 127 127
